527.300 518.100 514.700 511.200 507.200 504.200 501.300 496.700 490.800 486.900 478.800 471.100 465.300 459.200 456.000 447.700 442.700 437.400 433.200 429.000 427.200 422.900 413.200 412.200 412.200 412.200 405.700 397.500 385.500 370.700 360.500 348.100 338.800 328.400 323.300 314.100 326.800 340.500 346.000 357.100 373.600 380.000 391.800 414.900 430.600 448.800 476.200 497.000 520.600 541.200 559.200 577.900 596.900 619.100 632.300 637.000 642.000 643.900 655.600 671.100 684.200 693.500 694.500 690.200 666.300 639.200 617.500 604.400 597.700 594.500 595.500 581.700 570.400 558.100 548.400 532.200 523.300 512.800 508.000 502.400 494.200 486.200 480.200 475.100 470.600 467.800 463.400 456.500 450.900 448.000 448.300 445.900 440.700 435.500 428.800 417.000 407.200 396.800 387.200 374.900 361.700 350.800 339.400 326.700 316.200 307.300 297.500 287.900 282.200 275.300 266.900 259.300 250.600 241.200 232.200 224.700 217.500 208.000 197.500 192.800 187.100 179.200 167.800 165.400 164.100 156.700 142.900 130.300 124.100 121.200 117.200 117.200 117.200 117.200 117.200 117.200 117.200 117.200 117.200 117.200 117.200 117.200 117.200 117.200 117.200 117.200 121.000 130.600 149.700 164.300 186.200 201.300 214.900 229.600 247.400 263.200 275.700 288.400 302.300 320.500 348.000 367.100 366.300 369.300 342.100 334.700 341.200 345.600 341.700 331.300 319.500 307.700 292.200 270.000 250.300 273.400 299.200 321.000 341.900 366.600 388.900 408.800 428.400 444.200 455.900 468.500 489.000 505.100 522.400 527.800 523.100 517.300 504.600 493.300 485.200 481.700 480.400 481.800 484.200 491.100
527.900 519.700 516.100 513.700 510.600 506.700 504.100 502.000 498.100 493.100 484.700 478.500 471.000 465.100 458.700 453.400 449.200 443.800 442.200 435.900 429.300 423.800 419.800 412.100 405.000 404.100 395.700 388.000 377.500 362.600 355.000 341.000 330.600 322.200 313.000 308.600 315.800 326.200 336.800 344.200 359.900 370.700 386.400 405.800 425.100 443.500 467.900 489.000 509.000 528.400 550.000 572.000 591.700 619.700 627.000 632.000 644.400 648.600 661.900 671.800 684.000 695.800 700.700 698.600 690.000 671.600 650.500 625.100 609.400 610.900 598.000 591.000 583.900 570.400 558.500 546.100 533.800 525.100 519.000 513.500 506.100 496.400 491.000 486.600 483.200 478.800 472.500 467.700 463.200 460.800 460.500 457.000 454.400 450.500 443.200 433.400 421.200 409.600 398.100 382.900 370.200 361.200 351.000 340.700 329.300 317.200 304.200 294.600 286.100 276.200 271.300 264.300 255.500 246.500 240.800 234.700 226.200 215.800 207.000 197.500 188.600 179.200 179.200 179.500 177.700 170.900 160.300 142.500 135.600 125.700 118.400 117.200 117.200 117.200 117.200 117.200 117.200 117.200 117.200 117.200 117.200 117.200 117.200 117.200 117.200 117.200 117.200 124.600 130.700 149.100 167.500 182.400 198.000 213.400 231.900 248.200 262.600 274.500 287.500 302.500 321.400 336.200 338.300 334.800 322.400 311.500 312.300 316.000 314.400 307.700 295.100 285.600 271.500 253.500 250.300 277.300 302.300 324.500 346.000 367.900 388.000 406.000 423.900 436.400 446.900 466.000 488.800 501.300 519.200 528.300 526.600 519.500 507.000 494.700 483.200 481.600 479.700 479.300 481.400 487.300
531.500 523.900 518.300 515.700 513.200 509.900 506.100 505.900 501.000 498.700 493.400 484.800 478.800 470.600 466.100 460.600 454.600 449.200 442.500 435.500 433.400 427.800 421.200 414.600 406.900 392.200 386.700 375.900 366.300 354.400 345.700 337.600 326.200 313.100 307.200 306.900 308.900 317.700 328.200 334.300 347.500 362.800 377.100 394.300 414.600 437.100 461.100 480.800 504.600 521.400 543.200 564.800 585.500 611.200 616.900 626.400 638.700 655.000 664.400 673.200 683.200 693.700 700.000 708.200 713.600 702.500 674.900 645.400 623.400 617.900 608.900 601.100 590.900 581.500 576.600 562.800 552.600 540.800 532.200 525.200 517.100 509.200 503.400 498.200 493.200 488.100 485.300 481.100 476.400 473.100 469.800 466.200 465.400 462.100 455.900 446.600 434.500 418.400 407.200 393.400 380.600 370.500 360.600 350.500 338.300 326.200 315.000 304.800 294.200 282.800 274.800 267.600 259.800 251.700 246.000 241.200 234.400 224.400 211.700 196.700 190.800 191.500 191.600 192.300 190.600 185.800 177.200 165.700 152.900 139.300 130.300 118.200 117.200 117.200 117.200 117.200 117.200 117.200 117.200 117.200 117.200 117.200 117.200 117.200 117.200 117.200 117.200 119.000 125.000 130.900 148.500 167.600 182.700 197.300 214.900 232.100 245.900 257.100 266.100 277.100 288.300 295.900 299.400 300.800 295.900 288.000 283.600 286.700 286.400 282.800 275.000 263.700 249.100 239.500 255.200 280.000 304.000 324.800 345.700 365.900 384.000 401.100 419.000 432.200 447.700 469.600 488.200 496.800 513.100 529.000 535.900 527.900 512.400 496.200 486.500 480.900 478.900 476.100 478.200 483.600
531.900 525.800 520.000 517.900 515.300 513.400 510.800 506.900 504.100 500.500 496.700 491.900 485.000 479.100 471.100 463.000 456.200 452.100 445.900 443.300 437.200 430.100 421.800 414.700 406.400 395.400 378.600 360.500 354.700 345.900 337.500 329.500 317.300 308.600 302.600 298.600 301.200 307.300 317.000 326.900 344.500 356.100 367.600 384.500 404.100 428.800 451.000 472.700 494.200 517.200 540.000 558.600 577.900 597.600 610.100 624.600 647.400 659.900 665.500 672.800 678.900 687.300 708.700 721.500 717.100 705.900 683.900 654.800 635.900 625.600 617.300 616.100 608.600 600.000 589.800 577.000 563.000 553.700 545.600 537.200 528.300 523.300 516.000 509.700 503.500 497.600 499.100 496.700 492.200 485.400 477.500 478.000 474.800 470.600 465.400 457.000 445.500 432.100 419.400 409.500 396.600 382.700 370.100 357.700 344.900 333.600 324.100 313.000 302.500 291.100 280.400 269.400 262.500 258.900 253.100 246.300 240.500 230.300 215.900 196.700 201.100 203.400 202.400 202.200 201.400 198.300 191.400 182.800 171.400 158.700 146.100 135.700 118.600 117.200 117.200 117.200 117.200 117.200 117.200 117.200 117.200 117.200 117.200 117.200 117.200 117.200 117.200 117.200 118.400 126.100 134.800 152.700 167.400 183.600 197.200 213.100 226.500 236.600 242.200 245.600 255.600 258.900 262.400 269.300 270.400 266.700 257.400 259.800 260.900 257.700 253.000 241.200 222.900 239.500 261.400 282.500 303.500 323.300 341.100 359.400 378.200 396.200 412.400 428.500 449.200 469.900 486.100 494.800 507.000 532.600 545.700 543.500 522.400 505.500 493.900 483.900 479.100 475.600 475.200 480.000
531.400 525.000 521.200 519.400 517.800 515.000 512.600 509.400 507.400 504.600 500.400 496.400 491.900 484.700 473.600 470.300 465.600 458.000 454.000 445.800 440.000 433.400 425.800 415.400 407.200 396.200 379.600 361.000 345.200 329.400 328.700 320.300 312.600 302.600 298.000 296.900 296.200 298.700 306.900 323.400 334.900 348.300 360.700 376.500 393.600 416.300 441.700 464.100 485.900 510.100 533.600 550.700 571.600 589.800 608.200 627.100 648.400 663.000 666.700 671.900 679.100 694.400 720.800 724.900 726.300 712.000 694.700 678.500 656.400 643.600 635.500 627.100 619.700 613.000 605.800 587.500 575.100 561.800 555.500 547.600 541.500 535.700 527.800 519.400 513.800 508.100 512.000 511.200 506.500 498.300 491.600 488.500 482.500 476.800 472.200 465.400 454.900 441.600 430.300 419.700 406.800 394.600 378.500 366.200 353.600 342.600 332.000 321.800 310.400 298.100 284.800 274.400 268.900 265.100 259.100 252.800 245.800 234.400 220.800 208.000 213.600 215.500 214.500 212.900 208.500 207.600 203.400 196.700 186.700 175.300 163.400 151.300 137.500 127.300 117.200 117.200 117.200 117.200 117.200 117.200 117.200 117.200 117.200 117.200 117.200 117.200 117.200 117.200 117.200 121.600 124.300 137.900 155.800 169.800 182.000 194.000 204.800 213.000 217.400 222.200 229.600 232.600 232.600 240.500 244.800 244.200 238.600 235.000 238.900 237.700 232.600 221.000 222.900 244.300 264.900 284.000 301.200 318.700 333.700 350.000 368.600 387.800 407.400 427.300 448.300 466.400 484.400 494.900 508.000 535.200 546.000 545.000 529.900 517.200 506.000 485.800 481.100 479.000 473.100 478.000
529.200 524.800 522.600 520.300 518.700 517.600 513.900 512.300 510.600 508.200 504.500 500.500 494.800 488.600 481.900 476.400 472.500 465.000 457.900 452.100 445.400 437.100 428.700 418.400 410.800 400.200 385.500 365.100 349.600 329.100 311.000 304.700 305.400 297.700 294.000 295.100 290.100 293.100 300.700 316.500 326.700 338.500 353.600 368.100 386.000 405.100 432.200 453.500 477.900 501.600 524.200 545.400 566.400 587.900 605.600 623.500 641.600 655.800 664.400 671.200 687.000 704.500 723.900 730.600 736.700 726.700 717.000 702.700 684.900 673.700 661.300 644.800 637.200 633.100 621.900 603.200 588.700 576.200 566.200 557.000 552.100 545.800 537.300 531.300 525.500 521.200 524.300 524.900 520.600 512.700 507.200 499.900 491.400 485.000 480.400 472.700 461.600 449.600 437.500 425.800 419.700 408.100 389.600 375.100 361.900 350.600 337.800 327.800 317.200 306.800 294.800 283.400 273.500 268.500 262.800 257.000 248.900 237.600 223.800 217.200 226.100 227.900 226.400 222.400 220.000 215.500 211.800 207.600 199.900 187.500 176.000 165.400 154.400 142.700 132.200 121.800 117.200 117.200 117.200 117.200 117.200 117.200 117.200 117.200 117.200 117.200 117.200 117.200 117.200 117.200 117.200 125.800 141.900 155.200 164.000 173.700 182.400 187.100 189.600 197.100 205.400 210.000 210.900 213.900 218.900 221.900 219.000 212.500 216.800 217.900 212.200 206.400 225.100 244.700 263.000 280.500 297.700 312.200 324.100 340.300 361.900 384.200 405.600 426.100 445.300 461.100 479.100 494.100 513.100 534.400 550.600 547.400 538.400 529.100 515.400 499.100 487.500 480.800 473.100 471.900
527.900 525.300 521.900 520.500 519.700 518.700 517.900 515.200 513.700 511.400 508.000 503.900 500.500 493.700 489.600 483.600 476.500 471.600 466.200 459.100 452.600 444.200 434.700 422.800 412.200 397.900 384.100 366.000 351.500 338.500 314.800 297.300 294.700 292.800 291.400 291.500 287.700 289.800 296.100 310.100 318.800 331.200 346.300 361.700 378.100 394.900 415.500 444.600 469.500 495.300 518.000 538.300 559.500 582.800 598.900 614.300 630.200 649.300 661.800 677.700 695.500 716.700 728.400 739.700 747.700 741.800 732.500 721.600 712.000 701.400 688.000 671.600 656.300 646.400 638.400 619.100 599.000 585.500 574.300 567.800 562.500 557.200 550.400 543.400 535.100 537.600 537.900 538.000 534.300 530.400 529.900 517.300 503.500 497.100 489.500 479.700 468.400 457.600 446.900 435.900 427.300 417.700 399.700 382.100 369.200 359.200 347.200 336.200 327.400 316.700 305.200 293.000 283.400 274.800 265.900 259.300 250.400 238.900 223.800 232.300 239.200 240.900 238.800 234.000 231.100 227.300 221.000 216.800 212.000 203.300 192.500 181.700 171.100 159.600 148.400 138.900 129.700 117.200 117.200 117.200 117.200 117.200 117.200 117.200 117.200 117.200 117.200 117.200 117.200 117.200 117.200 117.200 127.500 139.600 148.000 153.100 158.000 161.200 162.700 170.800 179.000 185.000 188.000 191.000 196.000 199.500 198.200 195.000 197.400 199.700 194.500 202.700 221.200 237.400 254.300 271.200 288.300 303.900 318.400 335.500 355.200 378.200 399.100 421.100 441.100 457.800 471.400 495.600 520.400 535.800 552.800 559.800 542.900 533.700 523.000 504.000 495.500 486.200 474.000 468.900
527.300 523.800 522.100 520.400 520.300 520.300 519.300 518.500 517.000 513.900 511.400 508.800 505.400 499.400 495.200 487.200 482.000 477.500 472.900 463.800 457.800 451.600 441.400 430.000 415.200 403.100 385.700 366.400 348.200 327.200 314.200 302.200 292.000 289.200 285.700 284.900 284.500 286.500 295.600 306.100 312.600 322.600 336.700 353.600 366.200 386.700 408.400 437.200 460.800 487.400 512.100 531.600 551.900 576.200 590.700 611.000 628.500 644.600 662.600 682.700 703.400 721.900 739.500 747.100 759.600 755.500 750.600 741.700 734.700 725.100 709.700 696.200 680.800 661.000 647.500 631.300 606.700 590.400 582.800 578.100 575.200 570.900 563.500 553.500 548.200 553.000 552.100 551.200 548.400 547.100 544.800 530.600 511.400 507.200 498.100 487.100 476.100 464.300 453.800 443.100 434.300 423.100 404.700 386.700 377.600 370.300 358.900 347.000 335.400 323.900 313.700 302.400 292.800 283.300 272.200 263.600 253.200 239.800 232.100 245.800 251.100 252.700 249.500 245.600 242.700 239.700 235.900 230.800 223.600 216.300 207.500 195.800 186.200 175.800 164.600 156.300 144.800 135.800 125.400 117.200 117.900 117.200 117.200 117.200 117.200 117.200 117.200 117.200 117.200 117.200 117.200 117.200 117.200 124.500 131.700 130.900 127.900 136.600 140.200 141.800 152.000 157.900 161.500 165.000 171.600 176.200 177.400 177.300 181.600 181.700 179.300 194.300 212.200 227.800 243.000 260.900 280.600 299.200 312.600 328.200 348.700 368.900 388.800 412.400 434.800 453.800 469.500 494.900 516.900 536.400 554.200 556.900 547.800 535.900 522.500 511.500 502.100 487.500 472.000 467.300
527.600 522.600 522.200 523.500 522.100 521.900 520.700 520.800 519.300 517.700 514.700 512.300 509.100 507.600 501.500 494.000 488.400 484.200 476.700 468.400 464.200 455.900 447.200 436.100 421.500 406.600 389.100 371.100 353.900 337.300 321.500 308.500 297.100 292.300 289.300 283.400 282.300 284.100 291.700 295.600 304.100 313.900 324.600 343.900 358.100 375.100 398.100 427.000 453.700 479.500 501.500 524.900 544.500 566.600 585.900 607.000 625.100 643.800 663.600 685.300 706.900 725.600 753.600 762.100 770.100 771.700 766.400 762.100 757.900 748.900 733.000 720.900 706.700 685.400 660.200 640.700 619.800 601.500 594.500 589.000 588.100 583.900 575.100 561.600 569.100 568.400 566.200 563.700 562.500 564.200 556.500 546.000 518.900 511.400 505.200 497.100 488.100 471.900 456.500 444.800 428.500 419.900 404.900 394.500 389.600 378.900 364.900 352.100 339.400 329.900 319.100 308.400 299.300 290.300 279.700 268.200 254.800 240.800 249.300 260.000 264.500 264.800 260.100 254.900 254.200 251.700 248.300 243.900 237.500 230.800 221.000 212.800 202.200 190.600 180.700 172.900 163.200 153.100 141.400 131.300 123.500 123.500 121.200 119.500 118.600 117.200 117.200 117.200 117.200 117.200 117.200 117.200 117.200 117.200 117.200 117.200 117.200 117.200 125.200 125.200 129.300 134.900 134.100 136.500 143.900 153.800 155.900 163.500 166.900 162.600 166.900 185.800 199.100 214.300 235.800 257.000 275.800 291.900 306.300 321.300 341.000 362.200 381.800 402.800 425.200 449.000 469.000 491.500 513.300 530.400 547.500 553.400 553.700 541.400 527.700 516.600 506.500 489.300 474.800 464.600
527.600 526.100 525.500 525.300 523.800 522.500 523.100 523.000 522.300 519.500 517.800 515.600 515.800 512.200 507.600 502.300 495.800 487.700 480.300 475.100 467.400 461.400 453.700 441.500 423.700 409.600 395.600 380.500 362.700 344.600 325.900 311.600 300.800 293.600 288.100 282.000 279.700 281.300 287.500 289.000 295.400 303.600 315.800 334.700 350.200 367.400 386.800 416.100 442.100 470.200 491.900 515.700 536.900 557.900 581.800 602.800 621.700 644.700 665.100 684.200 701.900 727.900 763.500 781.100 784.900 785.400 783.100 782.900 781.300 777.100 763.600 749.700 733.700 709.800 680.800 658.700 637.600 616.600 605.200 601.200 600.100 596.100 588.100 578.200 585.800 581.300 579.200 580.600 581.600 580.100 572.000 553.600 530.200 519.300 513.700 508.600 498.800 488.800 473.100 452.500 435.300 422.300 410.800 408.600 396.500 380.900 367.600 356.300 343.200 334.100 323.300 315.900 306.800 296.600 284.600 269.900 254.800 258.100 266.800 273.400 275.800 276.500 274.400 271.000 266.700 263.600 260.900 256.100 251.800 244.100 234.900 226.600 216.000 203.800 194.200 187.600 180.000 169.700 158.700 146.600 138.500 131.600 126.300 124.400 122.300 117.200 117.200 117.200 117.200 117.200 117.200 117.200 117.200 117.200 117.200 117.200 117.200 117.200 117.200 117.200 120.900 123.000 124.000 125.400 128.900 132.500 141.900 151.300 154.300 152.800 163.100 181.600 195.900 214.000 231.600 250.400 269.200 284.800 298.100 313.000 332.800 354.200 372.700 392.200 418.100 443.800 464.600 484.300 507.500 524.300 545.400 556.000 558.000 546.700 535.600 521.500 500.600 485.400 475.600 465.000
526.200 524.300 524.100 524.800 524.500 524.800 525.200 525.400 525.200 523.100 522.200 521.400 521.800 518.000 513.400 508.500 501.800 495.000 486.200 480.400 472.400 464.700 458.000 447.200 429.700 418.800 402.200 387.700 371.400 351.600 333.800 315.700 304.500 296.800 288.400 280.400 275.400 277.400 284.500 285.500 290.400 297.100 307.500 324.300 342.700 357.400 375.900 404.500 434.100 462.900 485.900 509.100 531.000 552.300 576.500 596.000 619.200 644.200 661.600 681.700 698.200 724.500 761.000 785.600 798.400 794.400 793.900 800.200 807.500 808.100 796.000 779.300 763.400 733.300 707.800 679.000 657.700 646.200 625.600 615.800 610.800 607.800 601.000 593.700 595.200 593.200 593.200 600.500 606.900 598.300 582.900 566.600 545.900 533.300 521.600 517.300 497.500 482.300 466.400 455.300 443.200 431.100 421.700 412.400 398.500 383.500 371.700 357.800 346.800 337.500 328.400 319.600 311.200 301.300 288.400 269.700 265.300 274.900 281.500 284.400 283.600 284.600 284.100 282.200 278.600 275.700 271.700 268.400 264.600 257.800 248.800 239.300 229.300 218.700 207.900 199.800 193.300 184.700 174.700 163.500 153.000 141.200 132.000 125.500 122.000 117.200 117.200 117.200 117.200 117.200 117.200 117.200 117.200 117.200 117.200 117.200 117.200 117.200 117.200 117.200 117.200 122.200 122.400 124.600 126.300 129.900 137.300 144.100 146.000 149.600 162.900 178.900 191.500 206.600 224.000 239.300 260.300 276.200 287.700 304.300 323.800 345.800 365.200 387.100 413.200 438.000 459.300 476.500 498.300 516.700 538.000 552.200 558.700 551.600 528.300 515.600 499.900 486.700 475.300 464.900
526.500 525.400 524.100 526.100 526.000 527.800 527.800 525.900 527.200 525.400 524.200 526.000 525.500 524.600 520.300 515.500 506.600 500.100 491.800 483.700 477.700 469.900 461.800 454.000 441.600 425.900 408.700 392.400 374.100 357.400 341.000 322.900 308.100 298.300 287.700 279.500 273.900 273.900 279.600 282.400 283.700 291.300 300.700 315.600 332.200 346.700 367.200 392.600 424.900 451.900 475.900 501.200 524.800 545.800 570.700 591.800 616.200 639.500 655.500 677.900 694.600 721.000 753.700 780.800 799.700 799.800 802.000 804.400 809.400 811.600 819.100 809.100 792.400 762.500 748.800 708.100 679.300 667.800 650.200 633.900 622.800 620.300 603.400 607.100 607.700 610.600 617.200 630.000 629.300 621.400 610.800 591.100 564.700 554.200 543.900 521.900 498.200 479.800 468.200 456.600 446.700 436.400 427.000 416.500 402.000 386.300 372.400 360.400 349.300 337.400 328.800 318.700 310.800 303.400 292.200 275.900 284.000 291.200 293.400 294.600 293.400 293.200 293.200 292.100 291.000 288.600 285.600 280.900 275.200 271.300 262.800 252.400 243.400 234.200 224.100 212.900 202.400 194.700 185.700 175.500 163.300 151.100 143.500 132.300 124.000 117.200 117.200 117.200 117.200 117.200 117.200 117.200 117.200 117.200 117.200 117.200 117.200 117.200 117.200 117.200 117.200 118.700 120.500 124.000 125.600 128.000 132.500 138.300 141.700 147.200 162.100 171.700 185.400 198.600 215.300 232.000 250.800 268.100 280.200 295.300 314.700 337.100 358.100 378.600 405.500 429.900 452.000 470.600 490.800 512.500 533.500 554.400 561.200 553.600 538.500 519.100 502.400 484.300 469.700 460.000
524.000 524.200 525.300 526.000 527.100 529.200 529.100 529.100 528.400 528.200 528.100 528.600 529.600 529.500 527.000 521.200 514.000 504.200 495.500 488.400 481.500 474.500 466.800 456.700 446.500 429.800 414.000 398.700 381.300 363.300 346.100 328.000 310.400 298.500 289.000 280.500 274.300 269.900 274.100 278.900 280.200 286.200 294.800 306.800 323.300 339.100 359.900 383.500 410.200 440.800 464.700 491.000 514.600 540.100 565.000 585.300 608.500 630.500 648.600 670.100 691.100 713.800 742.600 770.500 794.900 803.700 801.600 806.300 801.100 803.900 810.500 812.700 794.500 783.300 765.700 736.000 704.700 683.300 667.300 655.400 638.400 627.600 620.000 625.200 629.200 636.600 646.200 657.800 656.800 650.900 634.300 613.700 586.400 564.300 543.700 524.400 502.500 481.300 467.800 457.600 444.800 434.600 423.200 410.000 398.700 385.600 371.800 356.900 346.900 335.800 329.000 318.100 314.700 309.500 298.300 291.800 301.600 307.700 307.800 308.400 308.200 304.300 305.500 305.100 303.300 302.500 299.800 294.000 289.500 283.400 274.400 266.200 258.600 249.900 240.100 227.900 215.000 200.600 192.500 182.200 169.700 161.200 155.700 147.200 137.600 124.400 117.200 117.200 117.200 117.200 117.200 117.200 117.200 117.200 117.200 117.200 117.200 117.200 117.200 117.200 117.200 117.200 119.000 123.500 125.200 126.700 128.000 135.200 140.800 144.900 155.000 167.000 178.400 191.800 208.500 223.400 237.800 258.800 274.000 289.300 306.600 328.400 350.600 372.800 396.900 421.500 445.500 464.400 486.500 506.300 528.300 551.700 563.200 560.900 546.200 531.400 512.100 488.900 471.700 457.700
524.700 525.300 526.100 527.200 528.700 530.000 530.800 530.600 530.300 531.900 532.800 532.300 533.500 534.600 532.200 526.700 519.200 511.400 503.500 493.800 488.400 481.000 470.900 460.300 449.900 434.400 420.700 403.600 385.500 368.400 351.000 334.100 318.700 304.200 291.800 280.600 274.100 269.900 270.900 274.700 277.600 281.500 289.100 300.100 316.800 330.300 351.100 372.000 396.800 427.100 455.300 480.500 505.600 532.000 556.900 579.300 603.200 622.900 639.800 660.100 683.400 704.100 729.700 753.600 778.300 794.000 790.600 797.800 788.500 793.600 796.700 802.700 787.500 775.100 764.900 745.000 723.200 713.700 695.900 682.200 658.800 652.300 653.800 658.600 659.600 664.600 667.700 677.200 677.000 669.500 661.000 626.700 597.800 570.300 543.800 521.200 509.200 489.000 470.500 456.400 445.300 434.900 422.700 409.000 400.700 387.800 378.400 366.200 355.000 341.800 333.500 326.700 320.900 315.600 310.800 313.300 320.700 325.300 326.600 327.000 325.900 323.800 319.900 319.400 317.200 317.600 314.300 307.900 303.700 296.100 287.800 280.700 271.400 262.200 253.500 242.100 228.200 213.300 197.700 184.900 174.500 171.800 165.500 155.400 144.900 134.600 125.000 117.200 117.200 117.200 117.200 117.200 117.200 117.200 117.200 117.200 117.200 117.200 117.200 117.200 117.200 117.200 122.300 123.200 124.500 124.900 126.800 136.200 136.800 142.100 150.500 162.100 173.500 186.900 201.100 215.400 231.200 250.100 268.100 282.500 297.400 321.600 345.100 366.900 390.700 416.200 440.200 459.800 479.700 501.200 524.400 542.000 559.700 564.800 560.900 548.000 526.300 501.600 476.700 458.700
523.000 524.500 525.700 526.100 527.800 529.000 531.300 532.700 534.100 535.600 535.200 536.100 537.800 538.800 538.500 532.300 526.900 515.900 510.700 504.000 495.400 487.600 475.600 465.100 453.600 440.500 424.600 407.200 391.900 374.700 358.400 339.600 322.800 309.700 295.100 282.100 274.800 270.600 266.800 269.600 274.000 277.700 283.200 294.700 310.700 324.600 338.500 361.600 387.000 411.500 443.500 469.100 493.900 521.600 546.000 571.500 594.700 615.200 630.900 649.300 671.600 690.300 717.600 733.100 756.700 777.000 770.200 779.700 775.300 778.300 788.000 791.100 783.200 766.800 753.800 737.000 718.700 712.600 704.800 688.800 672.700 673.400 673.100 674.200 687.300 691.800 692.400 692.200 693.300 694.200 678.700 641.300 615.300 586.600 556.800 527.900 511.900 500.300 478.200 459.800 450.600 437.700 426.700 417.900 412.100 399.400 389.100 380.100 369.500 356.000 344.700 328.800 328.400 321.900 325.200 329.800 336.000 339.800 341.400 341.400 339.100 338.700 335.100 336.100 335.700 333.800 329.500 325.700 319.700 312.200 302.300 295.900 285.600 272.500 263.900 252.000 239.000 224.300 205.500 194.700 189.600 181.000 173.600 162.200 152.300 143.900 135.800 126.100 117.200 117.200 117.200 117.200 117.200 117.200 117.200 117.200 117.200 117.200 117.200 117.200 117.200 117.200 119.000 121.000 123.100 124.200 124.800 127.800 129.800 138.900 147.600 156.800 168.100 180.000 194.500 208.300 222.900 237.900 258.100 273.700 288.200 312.800 337.400 358.000 384.000 410.700 433.900 454.300 474.500 495.500 518.400 539.400 552.200 564.200 573.200 560.700 530.400 501.500 475.400 459.500
521.100 523.800 525.300 525.500 528.800 530.900 532.000 534.400 537.100 538.200 539.400 540.700 541.700 541.800 540.300 536.300 529.600 524.400 518.900 512.500 506.900 495.700 484.100 469.500 456.000 442.900 426.100 412.900 394.700 378.400 364.500 347.200 325.500 310.500 297.300 288.300 278.200 270.300 266.100 267.000 271.300 273.500 277.200 284.900 303.700 314.100 328.100 350.500 376.200 395.500 430.100 458.500 481.500 510.500 534.600 562.400 585.400 607.100 621.800 639.200 658.000 676.300 702.900 719.200 736.600 756.600 751.800 754.100 757.000 763.400 773.900 781.200 775.200 762.600 753.100 733.600 715.800 708.000 704.000 688.500 683.500 689.300 687.700 691.800 700.000 698.700 703.300 704.600 703.400 703.100 694.300 658.300 632.400 604.800 574.200 542.100 521.100 507.900 488.900 468.300 459.800 449.100 438.400 428.600 423.000 413.500 399.400 387.500 375.500 365.400 354.500 344.100 337.800 334.800 340.100 343.100 349.000 352.000 353.900 354.100 352.600 354.200 351.300 353.100 352.100 348.200 344.700 343.200 338.500 330.900 319.200 309.400 298.300 285.000 270.500 259.200 247.400 235.800 224.500 215.200 203.300 193.000 180.600 167.600 156.800 147.600 143.100 136.300 123.400 117.200 117.200 117.200 117.200 117.200 117.200 117.200 117.200 117.200 117.200 117.200 117.200 117.200 119.500 122.500 122.500 122.100 121.200 123.300 125.800 132.500 139.300 149.400 159.100 173.100 188.400 203.100 215.600 229.600 249.000 267.400 280.200 303.900 327.200 350.900 376.600 403.000 426.000 448.200 468.200 486.900 512.300 535.700 552.800 569.800 579.100 560.400 529.800 500.600 476.200 457.600
520.700 522.400 524.400 525.400 528.000 531.600 533.100 536.500 539.300 541.500 543.100 543.500 544.700 543.900 543.300 539.800 537.700 534.600 529.100 521.300 513.500 499.500 490.100 478.400 458.300 445.000 430.900 416.100 398.600 383.600 367.200 349.700 331.100 315.300 303.100 294.400 282.500 270.900 265.700 265.700 267.500 268.100 271.000 278.300 295.300 305.300 319.800 342.500 363.500 382.600 418.500 445.800 470.300 496.300 524.400 551.500 577.600 595.300 611.400 631.600 647.600 663.900 687.100 705.900 717.300 732.800 730.600 738.600 741.700 751.800 756.800 769.700 770.300 758.300 744.800 726.300 707.700 698.200 700.100 690.500 692.600 696.300 692.800 700.000 702.900 700.800 704.100 709.000 706.500 706.900 700.000 671.600 649.200 624.400 588.600 559.700 533.200 508.500 489.900 479.500 473.400 464.500 451.400 437.500 424.300 414.700 404.100 393.400 381.400 370.200 358.800 353.100 344.200 349.500 353.700 354.100 360.100 366.300 370.000 370.700 372.800 374.200 374.300 371.000 370.000 366.000 363.500 361.300 356.800 350.600 340.800 328.700 316.200 300.100 280.200 267.300 259.000 248.400 242.700 233.800 219.100 207.800 194.900 184.800 171.200 160.600 152.900 145.400 136.100 128.700 120.900 117.200 117.200 117.200 117.200 117.200 117.200 117.200 117.200 117.200 117.200 117.200 117.200 117.200 117.200 117.200 117.200 117.200 117.200 124.400 129.000 142.100 155.200 167.500 181.500 198.700 212.500 227.100 245.000 262.300 276.300 292.100 314.800 342.400 368.000 395.200 418.200 442.500 463.700 479.000 507.300 533.400 550.900 568.500 575.400 554.500 521.200 498.100 477.100 460.100
519.000 521.300 523.600 525.400 528.300 531.900 535.000 537.200 541.500 543.800 546.300 548.000 548.400 548.300 546.900 547.800 547.600 541.600 535.600 530.200 518.600 508.800 499.700 480.500 457.700 446.800 433.900 419.900 404.800 385.300 369.400 355.100 338.800 321.100 307.800 295.500 284.200 272.100 266.100 263.400 262.900 263.900 266.800 273.200 289.000 301.000 314.900 334.600 351.400 371.700 402.500 431.200 455.800 481.600 510.200 541.400 570.300 589.000 601.200 622.300 638.500 653.900 669.100 691.400 699.900 708.200 709.800 717.600 729.900 742.700 754.000 760.700 764.400 752.000 737.600 712.200 700.100 696.400 696.400 697.000 699.500 701.900 699.200 701.700 701.300 696.600 696.600 702.700 702.800 697.500 706.100 681.700 663.800 636.700 608.000 574.400 541.100 524.500 504.100 489.900 481.300 470.600 457.200 443.000 430.000 422.000 409.800 394.100 382.100 369.100 363.000 360.600 356.500 362.200 366.300 365.700 372.200 379.400 385.500 388.300 391.800 393.800 396.500 395.000 393.900 390.000 383.300 380.200 377.400 370.700 359.300 346.800 332.000 316.700 298.500 279.100 270.400 263.400 257.600 250.900 240.900 229.200 214.700 200.700 185.500 174.800 165.300 154.600 146.900 138.400 130.600 122.400 117.200 117.200 117.200 117.200 117.200 117.200 117.200 117.200 117.200 117.200 117.200 117.200 117.200 117.200 117.200 117.200 117.200 117.200 124.700 132.500 147.200 159.600 175.200 193.000 208.400 222.800 239.200 256.100 270.300 281.500 299.900 331.400 358.900 387.200 412.800 436.600 457.400 473.200 501.100 528.500 552.600 566.200 568.700 547.500 515.700 499.600 482.500 462.800
517.700 521.100 523.300 525.500 529.800 532.500 535.900 539.500 543.600 547.200 549.700 551.300 552.900 553.400 556.000 557.300 557.700 549.700 545.600 535.400 524.800 515.200 502.200 481.000 461.500 446.500 439.000 421.800 406.200 389.600 372.600 358.400 340.400 324.100 310.700 297.500 286.100 274.100 267.500 263.200 259.600 261.000 262.800 267.200 281.000 292.100 305.100 322.200 340.800 361.300 385.800 414.800 440.100 468.500 495.500 526.500 566.900 582.400 599.300 612.800 626.400 642.400 654.400 671.200 684.600 687.500 695.000 704.700 723.000 739.000 753.600 745.400 748.500 735.800 719.600 703.800 703.000 703.100 697.600 697.900 702.200 705.900 704.300 706.200 702.600 696.600 692.500 694.900 694.900 679.000 697.100 685.300 668.800 653.800 622.200 588.300 556.800 529.700 510.600 493.000 480.600 469.200 458.100 445.500 433.100 422.200 405.300 389.800 377.200 371.400 371.000 370.200 372.500 372.500 377.700 377.100 385.200 394.500 400.900 406.400 410.800 412.900 420.500 419.400 416.500 408.700 398.600 399.600 395.500 387.500 376.900 363.900 348.600 332.100 315.000 300.500 285.200 274.900 269.500 264.400 258.900 247.700 232.200 215.300 199.900 187.100 177.300 168.400 161.700 153.900 144.400 135.800 127.400 124.300 117.200 117.200 117.200 117.200 117.200 117.200 117.200 117.200 117.200 117.200 117.200 117.200 117.200 117.200 117.200 117.200 117.200 125.900 140.000 154.200 167.100 185.700 201.700 219.000 231.900 249.000 263.300 273.100 290.900 321.700 350.700 378.000 405.000 429.000 452.000 473.800 498.200 526.700 552.700 561.900 562.900 543.000 526.400 506.100 488.700 467.000
515.800 520.400 523.300 526.800 531.400 534.200 536.800 540.900 545.500 548.900 552.400 555.400 559.200 561.400 562.700 564.500 565.400 561.000 557.300 549.200 534.100 516.100 501.800 484.700 464.000 448.400 437.100 424.000 409.500 393.600 376.500 361.900 347.800 329.400 313.700 299.500 288.400 278.100 269.800 263.200 259.100 255.100 257.600 262.500 271.700 283.700 296.600 316.300 331.100 352.600 372.700 399.700 424.700 452.300 478.600 507.900 553.300 569.100 592.100 607.700 621.600 635.300 646.800 657.500 668.200 669.400 682.300 700.100 718.800 734.500 742.300 738.700 735.500 728.200 714.200 711.600 715.900 714.600 704.100 700.600 707.200 710.200 703.600 700.200 697.700 692.700 685.200 687.900 680.100 662.500 681.100 681.900 671.200 664.100 639.500 609.300 577.900 546.000 518.500 504.800 489.800 475.700 463.300 449.000 434.500 420.500 407.200 398.300 388.300 378.100 382.100 386.500 386.600 383.500 390.500 391.100 398.900 409.300 416.700 426.000 433.300 436.500 439.800 441.200 437.600 432.200 422.800 417.300 410.500 399.900 389.700 376.700 361.000 343.000 326.700 312.900 304.500 297.100 288.900 283.300 275.900 263.600 246.900 226.000 209.800 199.500 187.800 182.800 176.600 168.700 158.600 147.800 140.100 135.300 127.000 124.400 124.300 123.300 122.700 122.300 117.200 117.200 117.200 117.200 117.200 117.200 117.200 117.200 117.200 117.200 117.200 117.200 133.700 148.600 161.600 178.700 197.000 213.600 229.100 244.600 257.100 268.900 286.000 312.100 343.200 369.500 398.700 424.300 448.700 472.400 503.100 528.900 549.900 554.300 548.900 544.100 525.000 512.100 493.100 469.400
514.200 518.700 524.700 529.000 531.700 535.100 540.100 543.200 546.100 550.200 555.200 561.700 565.900 568.100 571.800 574.400 574.900 571.200 571.400 562.900 537.900 517.300 502.700 487.400 463.900 444.600 440.000 426.800 413.200 397.200 379.100 365.300 350.500 332.300 315.200 303.400 290.600 280.200 271.200 262.800 257.500 254.200 252.400 258.900 268.800 278.400 290.300 305.400 323.200 342.600 364.300 387.300 408.800 435.300 462.200 493.100 528.500 552.700 576.500 598.400 614.200 625.100 636.100 648.000 654.400 653.400 671.800 692.600 714.500 737.700 742.000 740.400 738.800 732.400 724.600 725.600 729.200 727.500 711.000 707.000 712.300 713.000 703.500 692.600 687.900 682.800 672.500 670.600 665.300 651.100 652.300 656.600 665.300 660.200 656.400 637.800 604.300 568.000 538.000 519.400 504.600 484.600 466.400 449.200 436.400 423.400 415.700 406.000 396.300 390.000 397.000 401.700 401.800 399.200 404.100 404.600 410.400 422.300 429.400 439.900 449.500 459.700 461.900 460.600 459.400 454.000 443.900 432.700 422.500 411.300 398.400 385.000 368.700 350.000 330.400 323.600 320.600 316.700 310.100 304.200 294.200 278.500 259.700 238.300 221.200 210.500 202.900 199.500 192.100 182.700 171.400 159.400 154.400 148.200 142.000 136.600 131.100 129.100 125.400 124.100 119.800 117.200 117.200 117.200 117.200 117.200 117.200 117.200 117.200 117.200 117.200 117.200 126.400 143.500 157.900 171.500 190.200 207.100 225.600 241.200 253.700 265.000 284.000 306.500 336.200 365.300 393.100 417.600 442.000 469.900 498.700 523.600 541.400 553.600 555.500 533.800 518.900 498.900 483.500 462.900
514.300 518.500 524.000 528.800 533.700 537.200 541.400 545.300 548.500 554.300 561.700 567.000 571.800 577.200 582.700 585.200 586.500 587.800 583.500 567.200 537.300 516.200 504.400 482.800 461.100 453.100 444.000 430.500 417.000 405.700 388.600 370.900 353.100 333.900 318.200 305.900 294.300 280.200 269.900 262.400 256.300 252.900 251.200 258.400 266.600 274.000 284.300 297.000 311.800 329.800 351.900 376.200 395.200 419.700 447.900 478.700 503.200 532.800 562.000 587.300 602.900 616.500 625.800 634.300 642.700 648.000 662.600 684.600 707.600 732.600 746.400 748.300 745.900 741.300 736.800 740.500 742.400 735.500 721.600 714.200 715.600 714.300 704.200 686.100 678.000 668.500 656.100 652.100 647.800 635.900 637.000 648.000 651.900 656.900 668.600 664.000 626.500 588.800 561.900 534.200 516.100 487.000 464.400 453.000 440.200 430.700 421.400 414.000 403.500 408.000 413.600 418.300 416.900 412.700 419.400 420.100 420.600 435.900 442.300 454.200 464.800 475.800 484.800 479.700 482.200 474.100 464.900 446.500 431.200 416.300 403.600 390.900 376.200 356.100 341.800 342.800 340.700 336.300 330.500 322.300 311.000 293.100 269.800 255.100 243.000 234.300 224.200 217.700 210.600 202.100 188.000 174.200 164.300 162.200 156.100 150.800 144.400 137.900 130.800 126.800 119.600 117.200 117.200 117.200 117.200 117.200 117.200 117.200 117.200 117.200 117.200 117.200 117.200 137.600 154.000 168.800 185.000 204.300 225.100 237.200 249.600 258.100 282.200 301.500 330.500 358.900 387.800 411.200 434.600 462.600 492.600 512.100 526.200 548.500 563.000 552.900 527.600 502.000 471.600 454.600
513.800 519.500 525.300 530.000 534.600 538.900 543.400 547.600 551.700 557.200 564.800 572.800 578.900 584.500 592.000 595.500 599.800 604.200 596.600 563.800 537.800 513.600 497.700 476.900 465.400 453.800 445.400 434.700 424.100 407.000 391.400 375.900 358.800 341.000 323.400 308.600 295.800 283.000 271.900 263.500 255.200 250.200 250.800 256.600 263.700 269.700 277.800 290.100 302.700 321.100 339.500 361.700 383.500 404.400 435.300 463.000 488.100 519.700 552.000 575.200 589.700 604.100 616.400 620.700 622.800 636.200 654.500 675.900 699.800 721.200 740.200 747.100 748.000 743.900 744.900 748.000 745.200 738.500 722.500 714.000 714.200 712.600 701.500 684.000 670.000 659.400 647.500 634.000 626.500 619.300 620.800 633.400 637.000 648.000 660.700 665.000 632.600 599.200 579.400 554.500 533.500 504.300 485.000 464.800 446.800 435.000 431.300 422.200 421.700 423.000 430.900 434.700 434.100 429.600 435.000 437.200 436.600 448.100 458.100 467.200 484.200 497.300 495.200 493.800 498.800 493.900 478.900 458.400 436.500 417.300 403.400 394.900 382.300 364.800 362.500 359.800 356.500 354.400 348.400 338.900 325.500 308.300 290.300 274.600 260.000 255.200 245.700 235.400 229.900 221.100 207.500 192.900 182.800 175.300 168.300 161.600 154.000 150.300 143.500 133.900 126.700 117.200 117.200 117.200 117.200 117.200 117.200 117.200 117.200 117.200 117.200 117.200 117.200 132.600 151.400 168.400 184.800 207.000 224.300 235.300 244.100 262.400 282.900 302.200 326.200 355.300 382.900 405.000 427.100 452.700 479.100 506.600 533.300 549.800 561.300 559.500 537.500 505.100 471.900 452.800
515.900 520.500 526.000 531.800 536.700 540.000 544.300 548.600 554.300 559.300 568.300 577.000 582.900 589.300 599.800 607.300 613.900 616.500 605.200 573.500 543.300 517.600 498.200 487.700 471.800 454.000 448.400 439.000 427.200 413.000 397.500 382.200 366.400 350.100 332.600 314.800 299.200 285.200 272.400 263.500 255.000 249.000 250.100 252.400 259.100 264.900 273.200 281.100 296.800 308.800 329.500 349.300 374.100 392.500 419.200 450.100 471.800 504.700 533.900 565.600 576.900 590.900 606.000 609.500 614.100 625.600 642.100 664.400 686.600 706.300 726.900 738.900 746.000 744.100 747.100 751.500 743.300 736.100 719.700 710.400 709.400 710.200 698.300 678.300 660.600 652.400 640.900 627.500 614.500 606.200 608.600 613.700 626.200 639.900 645.100 649.200 636.500 627.300 605.500 577.900 549.200 522.100 497.700 485.300 464.700 448.300 442.600 440.000 437.800 437.100 446.000 450.300 451.200 447.400 449.900 454.200 455.000 459.900 472.700 484.300 504.800 515.200 514.600 514.100 511.700 512.100 492.800 468.600 440.500 429.700 409.400 401.900 392.800 385.100 382.700 378.600 376.600 373.500 365.300 354.000 341.200 325.700 308.100 287.800 279.800 274.300 264.500 255.000 247.900 239.200 227.100 212.400 201.000 189.800 180.400 171.200 164.700 162.000 154.100 143.800 130.600 123.900 117.200 117.200 117.200 117.200 117.200 117.200 117.200 117.200 117.200 117.200 117.200 127.800 147.500 168.000 186.500 207.700 223.900 233.500 239.300 260.600 283.100 302.200 322.700 349.800 377.700 400.200 421.300 447.300 476.300 501.800 527.800 551.900 565.500 551.300 525.800 496.700 470.600 451.500
517.200 523.600 529.600 533.900 538.000 542.200 545.900 550.800 556.900 561.900 572.300 582.300 590.500 601.000 610.800 619.600 627.700 625.100 612.400 587.900 559.500 526.100 504.100 491.300 471.000 457.800 453.100 443.900 434.700 418.200 405.200 389.600 374.100 359.800 339.000 321.000 303.300 290.800 277.200 263.100 256.200 249.000 248.800 249.400 256.000 261.600 266.300 276.700 287.800 301.500 321.300 339.800 363.500 381.100 402.600 429.900 452.100 488.700 521.300 553.100 567.100 573.700 590.600 593.500 603.500 609.500 628.900 652.300 670.700 690.800 710.000 726.000 736.800 743.000 746.000 748.600 740.200 730.200 718.000 706.800 705.200 704.200 694.200 669.400 651.800 645.600 630.000 616.800 603.400 595.800 595.800 596.100 611.500 630.700 631.700 637.400 627.600 625.100 610.600 593.400 565.600 536.600 514.000 499.400 478.200 461.800 455.500 455.600 453.500 447.900 459.200 465.000 467.200 465.100 463.300 469.200 473.200 473.700 485.300 503.100 522.500 531.400 531.100 530.100 523.100 513.000 492.300 475.600 461.200 445.000 428.400 419.000 410.900 409.000 407.600 403.500 407.500 399.700 384.700 372.400 358.500 343.800 326.200 306.100 303.300 295.400 282.000 271.300 266.000 258.000 244.500 229.700 216.100 204.500 192.400 180.100 177.900 174.600 166.400 155.700 143.900 132.200 117.200 117.200 117.200 117.200 117.200 117.200 117.200 117.200 117.200 117.200 117.200 117.200 144.000 167.100 187.200 207.400 222.500 232.400 238.900 261.700 282.100 302.700 320.100 345.200 371.800 393.700 413.600 438.100 468.800 497.700 531.900 553.700 561.500 545.100 514.800 489.800 469.600 455.400
518.000 525.100 531.100 536.200 540.500 543.500 547.100 554.100 561.100 567.000 576.100 586.200 600.000 610.700 623.300 630.500 637.700 633.300 621.200 599.000 570.500 541.800 514.200 491.000 471.000 464.600 456.300 448.100 438.400 425.000 411.300 393.600 378.300 361.500 346.000 330.500 311.200 294.700 281.200 267.900 255.200 248.100 244.800 246.400 254.400 261.400 264.000 268.500 281.900 294.900 310.700 329.800 352.100 370.700 385.600 408.000 432.200 472.300 507.900 534.700 552.500 558.000 567.600 568.300 585.900 595.900 612.400 635.500 656.900 675.100 692.300 714.200 730.500 741.900 745.700 742.900 735.400 724.400 717.200 704.400 700.500 696.700 685.500 656.400 637.100 632.100 616.600 606.900 596.500 585.900 581.000 585.100 592.600 608.500 612.200 616.100 612.600 614.200 609.000 602.700 586.300 560.500 534.100 509.400 494.100 475.000 469.200 469.500 468.100 463.000 469.900 478.200 484.900 484.300 477.000 482.800 488.400 491.400 494.100 507.800 526.600 541.800 546.000 534.900 532.600 523.900 509.600 498.200 479.000 458.200 442.900 435.900 428.900 432.100 432.700 434.000 448.800 428.700 409.900 397.000 379.500 369.000 351.500 343.200 336.400 324.800 308.000 294.100 286.800 275.300 260.400 246.000 231.400 217.300 208.200 194.000 194.000 189.100 181.500 170.300 157.000 141.200 124.200 117.200 117.200 117.200 117.200 117.200 117.200 117.200 117.200 117.200 117.200 117.200 138.800 165.400 186.700 206.800 222.400 230.600 238.700 261.800 283.200 301.500 319.100 341.400 365.800 386.000 403.600 433.800 464.600 495.300 526.200 554.000 559.500 540.300 507.400 493.900 473.700 460.000
518.700 526.500 533.100 538.900 542.700 545.300 551.600 557.500 565.900 573.900 581.700 596.300 611.300 622.600 631.500 641.000 648.100 644.500 622.300 599.100 569.500 542.600 531.100 503.500 481.400 469.700 459.900 450.200 439.800 430.000 416.600 399.400 384.700 368.100 351.000 334.100 317.400 298.500 283.100 268.900 259.700 248.500 244.100 244.100 251.500 257.100 263.300 268.800 279.900 288.400 301.500 318.900 340.000 359.900 375.200 391.200 412.000 447.500 485.300 521.800 537.700 544.200 551.900 560.300 572.100 586.900 601.100 621.300 644.900 665.300 688.200 713.200 733.100 746.600 745.700 738.400 732.500 720.800 716.000 703.100 696.100 685.900 674.200 650.000 631.200 624.000 610.500 595.400 585.300 578.200 566.100 575.500 580.800 591.500 598.300 602.800 605.900 608.200 609.300 607.000 599.900 570.500 542.200 511.800 497.100 484.500 482.000 482.000 482.200 477.200 481.700 493.800 503.300 501.700 494.400 498.700 502.200 507.600 509.900 516.500 531.900 545.600 557.000 564.600 554.200 545.500 534.600 520.700 498.600 476.000 463.400 450.700 448.000 455.700 462.500 461.200 468.200 454.100 439.500 420.900 403.200 388.400 378.900 376.200 368.800 355.300 339.200 320.200 307.200 292.900 280.700 266.000 248.600 236.000 226.800 219.200 213.800 203.900 195.800 184.000 167.300 148.200 128.900 117.200 117.200 117.200 117.200 117.200 117.200 117.200 117.200 117.200 117.200 117.200 133.400 163.200 185.700 207.300 221.400 228.700 240.800 260.200 281.300 298.900 313.800 335.400 357.600 376.900 398.900 429.600 463.800 491.500 518.900 541.100 544.500 532.500 515.400 496.000 476.200 460.600
522.000 529.300 535.000 539.900 543.700 550.400 555.300 562.200 571.100 582.000 591.200 605.300 619.100 629.400 640.000 647.400 652.100 644.300 628.800 601.700 572.000 553.800 544.600 510.100 490.200 478.000 467.000 454.000 445.000 434.200 422.100 406.400 389.200 371.900 355.100 337.400 322.400 307.700 291.100 275.600 261.100 249.800 244.400 241.800 250.600 253.700 256.300 263.800 269.400 283.000 292.800 309.100 327.800 345.700 363.100 381.600 400.600 425.200 459.700 501.000 518.100 525.500 531.900 542.400 558.700 578.600 594.600 621.600 637.200 666.400 694.100 718.500 739.700 749.200 743.500 736.500 726.700 719.800 712.700 700.000 690.300 674.900 653.100 638.200 618.100 610.800 603.800 592.600 573.700 565.100 558.000 565.800 572.200 584.700 589.900 598.200 601.800 605.300 609.600 607.800 604.300 576.000 545.300 516.800 499.500 498.400 492.900 494.200 495.600 492.900 495.100 510.700 522.700 514.500 509.900 514.000 517.500 522.500 526.700 533.200 538.700 553.400 572.300 580.800 584.900 568.900 555.600 539.300 518.000 493.300 473.200 458.600 464.500 477.500 487.900 494.400 495.900 487.600 472.600 452.100 432.500 422.200 416.500 410.500 400.500 386.200 370.100 351.100 331.400 312.700 300.900 286.000 268.100 254.300 251.500 244.300 234.400 221.200 208.800 194.200 174.500 149.900 127.700 117.200 117.200 117.200 117.200 117.200 117.200 117.200 117.200 117.200 117.200 117.200 128.400 161.200 184.700 210.000 220.700 225.400 239.700 255.600 277.500 295.700 309.600 324.900 347.300 369.100 395.200 421.900 455.000 485.000 510.600 529.800 535.800 528.800 513.500 498.300 480.600 466.200
524.700 530.900 537.400 541.300 545.500 554.000 558.800 567.500 578.200 587.900 601.900 612.100 625.200 636.800 645.600 653.700 663.700 660.900 639.500 608.600 582.500 564.800 550.400 513.700 497.000 487.400 469.900 457.800 447.600 437.400 427.500 414.500 394.700 376.600 358.900 344.600 326.800 309.600 293.400 275.100 262.400 251.300 244.900 240.600 246.600 250.100 256.400 259.500 267.200 277.100 286.500 298.600 316.900 335.600 357.700 371.500 387.500 412.000 442.600 470.800 493.800 506.400 511.400 532.400 549.500 569.800 589.000 612.000 642.500 669.600 695.300 721.800 742.400 750.100 742.100 730.400 723.500 718.900 706.700 693.800 681.400 666.000 647.100 621.500 604.200 600.000 592.400 581.600 573.300 559.000 553.000 553.500 560.300 571.000 582.800 588.200 594.500 602.000 606.200 608.400 605.400 580.700 547.000 522.600 520.500 511.800 505.500 504.500 508.300 506.500 507.800 526.400 538.300 525.000 524.500 530.400 531.600 537.200 541.300 547.200 552.000 557.200 575.200 591.100 600.000 595.100 572.300 549.800 528.000 506.700 490.200 481.700 478.900 497.000 518.700 529.600 529.700 517.800 503.800 482.000 470.100 460.900 451.100 442.100 431.100 416.600 398.700 377.100 354.000 334.200 321.200 305.200 285.600 277.200 273.300 265.100 253.700 238.800 220.200 202.300 179.600 150.800 126.800 117.200 117.200 117.200 117.200 117.200 117.200 117.200 117.200 117.200 117.200 117.200 127.800 158.300 183.400 207.300 215.100 218.200 235.300 253.700 274.700 292.400 304.900 319.700 339.800 361.200 391.000 418.900 447.500 473.200 499.900 519.500 528.500 532.200 516.000 503.000 488.900 474.800
524.700 531.500 537.900 541.900 548.500 557.900 563.700 571.700 583.500 595.500 609.800 619.600 629.000 643.400 651.600 662.700 671.400 666.400 648.600 620.300 594.600 567.700 547.100 515.200 499.700 490.100 474.000 462.400 453.400 443.500 431.200 416.500 402.900 384.200 365.200 346.500 331.100 313.300 295.300 278.900 261.800 251.900 244.000 240.600 242.700 246.900 252.100 257.100 267.000 275.800 282.300 293.800 308.700 329.800 352.200 365.600 379.500 400.500 429.100 453.900 473.900 483.400 497.900 518.900 544.800 569.400 590.100 615.600 645.500 672.400 698.000 721.000 743.100 746.700 737.500 730.800 725.200 718.600 705.500 689.900 676.300 658.800 638.500 616.000 596.800 590.100 586.900 570.400 559.700 547.100 541.400 543.300 549.900 559.700 569.000 578.500 587.200 602.100 600.500 606.100 605.000 586.900 560.900 543.400 537.600 526.600 517.800 518.200 519.900 518.100 518.800 539.300 547.800 534.100 539.800 547.400 551.400 558.900 562.700 566.800 569.900 576.300 580.600 589.900 604.400 608.700 596.200 577.900 549.700 537.200 523.000 509.400 500.000 521.000 546.800 557.700 555.500 547.900 535.100 519.800 511.200 496.600 480.300 469.600 457.400 443.000 424.100 401.400 376.300 361.200 344.100 322.000 306.400 299.900 294.900 284.800 275.500 257.800 234.700 208.900 183.700 161.100 135.800 123.900 117.200 117.200 117.200 117.200 117.200 117.200 117.200 117.200 117.200 117.200 128.700 157.600 181.600 203.300 209.300 215.200 232.800 253.700 273.000 289.600 303.500 314.900 334.200 357.700 388.500 418.500 448.100 470.800 495.600 519.000 533.300 543.200 533.600 515.700 503.000 488.300
525.000 531.100 537.100 543.700 553.100 562.000 572.000 578.100 589.800 599.700 613.200 623.200 632.300 645.500 658.200 668.800 674.100 667.600 654.900 634.400 602.200 566.400 540.800 517.900 505.200 499.100 479.200 467.100 459.100 447.600 432.800 421.000 403.100 387.200 366.200 349.000 335.200 317.800 302.000 282.300 263.600 252.300 242.800 241.700 240.200 242.600 247.300 254.000 266.000 271.500 277.400 286.400 302.700 321.000 343.100 358.000 372.800 391.900 416.400 440.300 450.500 467.900 493.500 521.700 546.900 574.000 595.800 617.200 644.900 674.500 701.800 724.500 740.800 743.000 736.200 733.300 727.600 717.300 701.600 684.700 671.900 652.100 627.400 609.700 592.900 574.800 571.700 557.400 547.400 535.400 530.600 536.800 540.500 545.500 556.100 566.100 579.700 593.600 594.800 604.000 604.700 595.400 586.600 567.900 556.300 546.800 537.200 531.100 531.600 528.800 534.300 554.500 558.100 547.100 555.900 565.200 568.400 577.300 583.600 585.600 592.200 595.100 603.500 610.200 609.200 627.400 622.200 605.600 585.500 569.200 552.400 535.000 528.400 555.400 570.100 575.100 577.300 576.400 572.000 565.900 551.000 530.700 508.900 492.300 479.600 468.500 451.800 430.600 408.900 387.100 364.600 341.400 326.800 322.800 319.000 310.900 298.200 278.100 253.100 224.200 196.600 170.700 142.900 126.200 117.200 117.200 117.200 117.200 117.200 117.200 117.200 117.200 117.200 117.200 131.200 155.300 178.100 197.700 205.000 210.700 229.800 250.000 269.000 286.100 301.200 312.700 334.100 354.600 384.000 415.400 444.800 473.100 500.000 518.800 530.100 535.900 538.800 530.000 506.800 491.200
524.200 530.200 537.600 544.600 553.400 566.200 575.000 579.500 588.100 600.900 612.800 622.800 632.800 648.000 657.800 668.400 671.200 668.900 665.400 645.200 611.400 569.800 541.500 517.700 509.800 498.400 483.400 469.100 460.400 449.400 433.800 425.800 413.100 404.300 375.600 352.100 335.100 319.900 303.200 284.000 271.100 255.300 246.400 239.300 238.900 243.000 244.700 248.500 257.900 264.800 272.900 283.900 298.600 311.500 328.100 350.300 367.300 384.500 394.800 417.300 441.800 468.600 496.300 523.700 549.900 578.600 601.000 618.000 642.800 672.200 705.900 727.900 741.600 740.100 734.600 734.700 726.200 711.700 695.100 679.700 667.000 644.100 623.900 606.500 586.900 567.900 554.200 542.700 530.300 527.700 522.400 528.000 534.700 537.000 547.900 556.300 571.900 585.300 590.100 602.100 605.800 612.000 608.800 599.100 589.500 580.800 565.700 549.800 545.800 545.000 544.000 564.200 571.500 560.200 572.800 585.300 585.300 593.000 601.600 606.200 617.800 618.500 629.800 639.400 640.500 645.300 644.600 632.600 614.400 595.800 577.300 556.600 559.000 597.500 600.300 595.900 598.900 606.600 610.400 611.800 595.200 563.800 535.400 511.300 496.400 494.800 483.900 460.800 436.300 410.300 388.000 358.300 350.500 354.900 350.100 338.100 323.300 301.900 270.400 239.700 212.000 181.400 153.900 127.400 119.100 117.200 117.200 117.200 117.200 117.200 117.200 117.200 117.200 117.200 132.800 155.800 176.800 194.500 201.100 204.500 224.300 243.600 260.900 279.900 297.700 311.000 330.000 348.200 375.600 411.100 441.500 467.300 493.800 519.300 534.100 541.600 537.700 526.800 517.400 505.800
524.200 530.800 539.400 545.800 553.900 564.300 570.000 576.100 587.500 598.100 608.800 620.900 629.300 645.900 657.200 668.200 670.600 668.500 667.800 653.900 623.900 579.600 547.000 521.800 511.400 501.700 486.500 474.200 463.300 450.300 441.200 432.400 423.100 412.300 383.300 358.300 337.400 322.300 306.700 290.200 275.400 262.100 246.300 239.100 238.200 243.300 244.100 247.900 253.100 259.000 267.200 277.800 289.200 303.800 320.500 338.100 357.200 371.500 397.200 422.000 443.600 474.200 500.900 526.600 550.900 580.300 603.200 619.900 642.100 674.500 705.500 729.100 737.400 735.700 729.600 731.200 722.800 704.700 687.800 678.500 664.700 638.000 614.600 594.700 573.600 557.400 541.400 526.600 522.000 518.500 512.900 520.700 529.800 534.200 541.500 552.400 567.800 575.300 588.900 600.000 608.500 619.900 620.900 623.000 620.400 618.200 595.700 568.900 560.000 562.400 565.700 565.600 582.200 574.200 587.100 600.700 605.800 615.000 623.700 636.900 643.600 653.000 657.000 660.600 661.700 669.500 665.700 654.200 637.600 618.900 598.100 586.300 590.500 614.300 623.800 624.700 630.700 634.000 647.200 638.500 627.300 592.600 563.200 540.600 529.500 530.200 518.600 492.900 459.800 429.500 401.400 375.600 377.400 388.000 382.900 369.100 351.300 325.500 292.400 261.200 227.600 192.300 161.000 129.700 117.200 117.200 117.200 117.200 117.200 117.200 117.200 117.200 117.200 117.200 132.700 154.600 176.100 192.300 198.800 201.700 219.100 238.900 260.600 275.800 294.500 310.200 326.600 345.900 372.000 404.300 437.400 467.300 492.300 515.800 535.600 535.800 531.600 529.900 521.300 514.100
524.200 530.700 539.200 546.900 553.300 561.100 568.200 575.100 580.100 591.100 604.700 613.100 623.100 634.800 648.300 660.800 663.700 663.600 664.000 659.000 633.000 588.500 558.300 536.400 516.100 502.900 491.100 482.000 469.400 457.800 446.100 440.300 431.100 416.200 385.700 365.000 345.400 329.000 311.200 293.100 281.500 263.100 246.600 238.500 237.100 243.400 241.800 243.900 248.600 259.400 263.400 272.600 286.300 295.800 312.000 323.600 346.200 371.900 400.300 426.400 444.600 472.400 496.600 522.200 545.800 573.700 600.100 623.300 640.600 670.900 702.100 725.500 731.100 728.700 722.800 725.700 713.100 695.800 685.800 676.700 655.500 631.000 607.100 583.300 559.400 544.300 531.300 524.500 512.100 509.000 506.500 515.800 526.100 531.800 540.200 548.000 561.400 574.700 589.700 600.800 614.200 626.600 629.100 636.100 631.400 633.000 620.600 591.600 576.400 580.700 584.700 585.400 588.200 592.400 603.800 616.800 635.600 643.000 657.400 671.100 676.900 685.600 690.000 684.900 674.600 685.100 684.900 665.600 654.600 645.100 636.900 633.000 626.000 648.800 655.700 660.400 663.900 653.500 657.700 658.800 636.700 611.200 587.900 584.400 579.900 572.700 568.500 518.800 477.700 443.300 413.200 396.800 403.600 412.300 404.900 395.700 375.900 347.500 315.800 279.500 239.100 198.900 163.300 130.100 117.200 117.200 117.200 117.200 117.200 117.200 117.200 117.200 117.200 117.200 131.400 154.400 176.200 191.000 193.200 199.100 217.400 237.500 256.900 277.200 293.700 309.500 326.200 344.900 371.100 400.500 432.600 465.100 494.200 506.400 519.000 526.600 532.400 538.800 531.300 522.600
525.200 531.800 539.900 547.800 553.400 558.500 565.300 572.800 580.400 586.800 599.500 607.100 614.900 623.400 637.400 649.000 656.200 661.800 662.200 659.000 637.100 593.800 569.700 545.700 529.100 514.700 496.300 486.300 473.600 466.600 455.600 448.100 429.700 418.500 389.100 370.800 351.300 331.400 313.500 295.100 280.000 264.400 250.400 240.600 236.600 237.600 239.600 242.000 248.500 256.500 259.800 271.200 280.700 290.800 301.700 323.400 342.200 367.700 396.100 426.000 447.100 472.500 493.100 515.400 540.900 568.200 594.600 619.900 637.200 663.100 692.000 717.000 718.900 720.700 716.300 713.700 701.400 687.100 680.600 667.500 645.000 620.000 599.000 577.300 552.500 533.500 520.400 511.300 504.200 503.700 502.400 510.400 520.200 530.300 541.600 553.000 565.100 578.000 592.700 606.400 621.900 631.900 638.600 646.400 644.600 641.800 633.200 610.000 598.000 600.900 608.100 603.300 603.400 607.700 622.300 633.900 651.800 662.100 679.200 689.400 700.000 702.600 695.400 692.000 676.100 690.800 685.700 671.400 659.300 662.600 670.900 670.000 659.500 687.600 691.800 686.400 689.900 676.200 672.500 661.100 644.400 627.600 620.600 618.100 607.000 596.000 577.500 530.800 489.000 452.500 421.000 421.500 425.700 431.800 420.600 407.500 389.300 364.400 333.100 292.300 245.200 195.900 161.000 128.600 117.200 117.200 117.200 117.200 117.200 117.200 117.200 117.200 117.200 117.200 131.800 156.300 178.100 187.800 188.000 194.400 219.000 232.800 255.800 275.700 291.900 308.700 325.200 343.800 372.300 404.200 437.000 472.000 499.000 513.100 514.300 523.300 530.400 533.400 536.300 526.500
522.800 531.100 539.700 546.000 550.800 556.700 563.100 571.500 577.700 584.300 594.100 599.100 607.600 619.200 634.300 644.800 651.700 659.600 658.700 650.700 631.900 598.700 576.300 551.400 530.800 518.400 502.300 490.000 484.400 477.100 465.000 446.500 424.300 409.300 390.800 376.600 357.200 337.300 317.300 299.000 281.800 270.700 251.800 241.100 236.400 236.400 237.200 239.100 244.500 250.900 256.100 264.400 273.400 283.100 299.300 317.600 338.600 362.200 391.300 421.700 445.300 469.100 489.500 510.400 536.800 559.600 584.400 610.000 632.200 662.300 686.900 701.800 705.300 705.000 708.900 704.800 693.000 682.000 674.900 660.600 634.100 616.700 588.500 568.600 552.500 531.300 516.900 508.100 497.300 491.200 495.400 506.000 517.100 527.900 541.000 554.900 567.700 581.000 596.200 613.400 627.400 636.600 648.000 655.100 656.000 651.100 644.000 621.700 628.200 630.200 621.100 617.500 617.100 632.100 645.900 646.400 656.700 669.600 682.700 694.600 703.000 708.400 701.300 690.400 675.700 679.100 686.500 676.400 664.800 664.600 676.800 678.200 672.300 707.100 707.800 704.800 693.600 687.900 678.800 665.100 647.400 633.200 639.300 625.100 619.200 605.200 574.600 530.800 491.800 460.800 447.000 448.900 446.400 441.000 430.900 416.700 398.400 374.700 341.500 300.000 249.300 202.400 162.700 129.500 117.200 117.200 117.200 117.200 117.200 117.200 117.200 117.200 117.200 121.500 132.000 155.100 172.200 181.300 186.100 193.400 212.800 235.300 258.900 277.500 291.600 309.300 325.000 342.800 370.800 401.900 434.800 466.000 486.100 499.700 512.800 522.400 526.400 528.500 533.000 526.700
520.300 528.900 539.500 544.700 549.200 554.500 557.900 564.600 569.900 578.100 587.000 593.300 602.600 613.300 629.500 639.700 644.300 653.400 653.700 647.100 630.200 611.000 584.800 561.200 535.700 520.600 516.200 500.300 497.800 480.900 461.400 438.000 422.100 403.500 395.800 386.300 364.900 342.300 320.600 301.300 283.700 270.900 255.400 248.600 239.000 236.700 235.200 236.100 239.900 246.300 251.200 258.700 268.800 280.300 294.100 311.900 333.000 358.800 383.600 415.800 438.700 460.000 482.700 503.100 531.400 554.100 573.800 597.100 621.600 654.100 679.300 692.900 700.400 694.800 699.400 694.600 686.000 674.500 666.600 649.700 624.300 603.500 583.900 566.200 551.500 530.400 513.100 504.500 493.200 488.700 493.100 502.900 513.900 526.000 539.900 555.800 572.800 585.300 601.900 617.900 632.300 643.700 655.400 659.200 662.200 653.100 655.700 646.500 651.500 645.000 635.100 631.800 631.700 649.400 657.000 662.600 672.700 680.800 688.800 689.600 696.800 710.900 702.400 690.700 673.200 679.700 684.600 686.200 674.700 665.900 669.800 674.700 672.300 700.700 711.200 700.300 690.700 686.100 688.400 667.500 643.400 632.000 632.200 627.900 618.100 606.300 568.200 530.300 492.900 465.900 476.800 476.400 462.600 449.500 435.400 419.100 400.200 376.600 343.300 301.200 251.900 200.800 155.000 127.200 117.200 117.200 117.200 117.200 117.200 117.200 117.200 117.200 117.200 124.400 134.100 150.800 166.200 177.400 181.900 199.500 219.900 240.900 262.000 279.500 292.700 310.300 326.800 343.700 367.100 393.700 427.800 452.100 475.600 496.400 510.700 517.100 524.700 527.100 522.900 513.400
520.000 529.200 537.600 543.200 547.300 552.100 554.300 558.900 566.400 574.500 580.800 589.200 598.200 609.800 622.600 633.300 637.700 646.100 649.300 647.400 632.500 618.400 594.400 567.900 547.700 524.800 517.500 505.800 500.800 475.400 457.100 434.600 417.200 406.000 405.800 395.500 369.500 346.200 327.500 306.600 289.200 271.100 262.700 253.700 245.100 239.900 235.200 236.400 238.700 242.600 248.000 255.500 264.900 274.800 288.200 307.600 326.000 350.800 378.400 408.800 430.400 453.000 476.500 499.100 525.000 549.200 566.700 588.400 615.400 638.700 667.200 682.100 694.900 686.200 687.900 684.700 678.700 669.900 658.400 638.600 617.900 595.900 578.100 559.600 548.000 529.500 507.000 497.700 488.900 484.100 486.100 498.200 510.600 524.000 537.800 556.800 575.100 585.500 605.900 621.700 636.800 647.500 659.100 661.900 663.700 656.200 655.700 656.100 665.600 666.400 651.300 645.000 646.400 657.100 666.300 668.400 675.500 689.600 694.000 695.700 691.700 697.100 693.400 683.900 671.200 676.200 683.100 688.900 690.400 680.900 673.300 680.400 675.200 681.300 693.700 693.100 679.900 674.000 677.600 661.200 636.900 624.800 624.600 627.600 623.600 598.100 559.800 524.000 497.100 487.000 502.300 491.100 471.100 451.800 431.100 412.100 392.800 368.500 337.300 297.800 249.300 193.600 149.400 123.000 117.200 117.200 117.200 117.200 117.200 117.200 117.200 117.200 117.200 125.000 134.700 151.700 165.200 174.200 180.200 201.200 223.000 242.600 263.900 280.400 293.200 312.200 328.900 343.700 366.900 389.100 417.300 445.700 477.400 496.100 504.400 511.200 512.700 516.900 516.300 511.800
520.400 528.200 535.500 540.200 544.200 548.900 553.100 556.000 561.400 568.900 575.500 585.500 596.000 606.000 613.300 623.900 630.100 640.300 651.400 649.200 634.400 623.800 602.200 574.200 546.900 523.800 517.800 503.500 501.100 472.500 454.000 435.100 417.700 408.000 399.500 392.000 370.700 349.600 331.300 308.200 291.200 275.800 267.100 259.700 250.500 243.600 237.500 234.500 236.600 239.500 245.400 251.700 259.700 270.600 284.800 305.500 323.600 343.400 369.800 397.100 425.700 446.900 470.000 491.900 514.900 542.700 559.300 583.300 608.000 631.900 649.400 669.800 679.100 679.000 679.100 677.100 677.100 667.500 650.900 630.200 609.800 589.300 568.800 549.900 532.600 515.300 499.700 491.300 483.200 477.200 478.800 491.700 506.000 519.800 534.200 555.800 573.300 586.700 609.100 624.700 636.900 648.400 658.800 660.700 660.300 655.900 658.200 660.800 669.100 675.200 668.700 655.000 660.400 666.600 670.500 672.400 678.300 684.300 691.700 687.900 688.000 690.200 689.900 681.200 668.400 669.000 682.600 694.800 699.900 692.100 672.200 672.500 668.400 674.500 684.500 683.100 671.500 666.200 664.100 650.600 629.500 611.800 621.300 619.100 612.000 580.200 555.200 534.400 508.000 512.600 523.000 493.000 468.500 442.800 416.400 393.400 374.200 351.600 324.700 286.500 241.500 197.200 155.900 127.900 117.200 117.200 117.200 117.200 117.200 117.200 117.200 117.200 117.200 121.600 135.700 150.700 162.900 170.000 176.800 200.600 223.000 244.300 263.700 280.000 292.100 311.500 329.400 345.900 364.700 387.500 411.300 440.700 472.200 494.100 498.300 500.300 505.900 511.100 512.800 509.100
519.400 527.100 534.100 539.200 544.600 548.100 551.900 557.300 560.700 565.000 570.000 579.500 592.700 602.500 608.600 617.600 623.600 636.000 643.500 643.800 644.500 632.200 605.400 578.100 549.800 530.200 514.200 506.300 495.600 463.600 446.200 431.400 422.500 412.900 400.000 384.300 369.900 353.400 340.600 324.400 303.400 282.200 273.200 262.200 254.300 247.700 237.700 232.800 232.900 237.000 240.500 249.100 257.600 267.000 281.400 300.000 316.500 336.000 363.400 391.000 417.400 437.100 463.300 483.700 504.900 524.500 551.300 572.700 595.900 616.100 636.800 659.100 670.400 676.700 673.900 664.800 668.500 659.600 643.000 622.000 598.900 583.800 563.300 540.600 525.200 508.600 490.700 482.600 475.700 466.500 473.400 485.600 500.300 515.600 533.900 553.400 569.900 586.700 609.700 626.100 634.600 642.400 653.400 656.300 654.000 650.500 659.600 662.400 663.800 677.400 677.600 666.800 676.500 680.400 674.100 679.000 687.800 687.400 686.700 682.900 679.300 681.900 679.500 671.600 656.200 661.600 670.300 689.200 693.900 686.100 669.200 662.900 660.200 670.900 677.000 671.800 658.700 656.700 649.800 638.200 622.400 608.000 607.800 610.000 589.600 568.300 553.300 539.900 520.600 527.700 510.600 486.500 457.300 426.000 392.700 365.100 346.900 329.500 304.700 270.100 232.200 193.400 154.400 135.600 124.600 121.000 117.200 117.200 117.200 117.200 117.200 117.200 117.200 117.200 135.200 150.400 159.700 166.300 176.600 201.200 222.700 243.000 261.300 277.800 291.300 312.100 329.300 343.500 361.400 386.600 416.300 450.900 470.400 485.200 491.800 494.500 497.400 501.800 501.900 503.900
517.400 526.200 532.500 537.400 542.300 545.800 550.200 556.500 559.200 562.500 565.900 573.700 588.500 597.900 604.200 612.000 619.200 628.700 638.400 643.600 654.500 639.100 609.000 576.800 546.900 533.300 519.200 511.200 488.900 463.600 450.500 437.800 425.800 412.600 403.400 389.100 375.500 362.700 343.200 324.700 304.800 288.100 275.700 264.300 253.700 247.900 237.000 230.400 229.800 233.700 239.700 248.000 256.400 263.000 275.300 293.400 311.600 329.600 355.200 382.500 411.100 428.800 442.900 464.600 483.800 507.800 536.100 556.800 577.100 597.600 617.300 642.600 659.500 667.300 669.600 656.900 658.200 649.500 636.400 618.200 592.900 575.000 554.500 535.100 513.200 498.000 482.200 474.800 467.000 456.300 467.600 479.200 495.500 509.900 529.900 548.800 565.900 584.600 607.800 622.300 630.400 634.000 643.100 648.200 645.900 647.200 652.700 656.500 658.100 671.800 674.300 676.300 692.300 693.500 686.300 681.100 685.500 688.500 684.300 679.700 673.200 671.400 669.500 663.500 653.000 653.800 663.900 677.500 676.000 665.300 657.000 649.600 646.800 656.900 664.200 658.900 649.500 646.800 640.400 634.100 618.500 604.100 588.500 586.900 573.600 559.000 553.800 540.000 535.600 523.700 502.300 474.200 442.600 404.000 367.100 337.100 314.800 302.300 280.400 251.300 217.900 185.600 154.500 142.600 130.700 125.000 117.200 117.200 117.200 117.200 117.200 117.200 117.200 118.600 133.000 149.700 158.700 165.800 178.400 201.200 223.300 243.000 260.200 275.700 290.900 310.700 327.300 340.800 357.900 386.500 414.800 447.400 471.200 482.100 482.100 485.300 489.200 492.000 493.500 492.100
513.700 523.600 531.100 535.300 539.800 544.000 548.400 552.900 557.700 560.400 564.400 571.200 583.200 591.900 600.500 607.100 616.700 627.400 633.700 644.700 653.800 640.400 608.700 574.600 555.900 537.400 524.900 509.500 491.100 471.000 455.800 443.700 427.100 414.300 405.900 395.100 378.400 363.100 347.500 333.500 312.600 298.300 278.100 264.500 254.900 246.400 236.700 228.800 228.000 229.900 239.500 247.300 253.900 260.700 273.100 287.400 306.900 327.500 355.800 388.100 414.400 426.600 436.400 450.000 468.400 495.700 516.200 534.800 552.400 577.400 599.400 624.600 644.000 656.200 665.800 653.300 648.400 639.500 629.000 610.000 588.300 565.100 544.800 527.300 508.200 490.300 475.100 467.500 460.800 446.800 463.700 475.300 490.200 505.500 524.900 544.400 561.200 581.500 602.200 616.200 623.200 625.100 630.700 635.900 635.000 644.100 646.900 650.600 656.000 662.000 667.400 676.800 697.000 696.600 693.400 685.000 682.900 680.900 674.400 668.800 658.000 662.100 655.800 656.800 653.000 656.400 661.600 666.000 659.900 647.200 638.900 631.400 631.500 640.800 651.100 648.800 639.900 635.000 634.700 629.300 608.700 594.800 576.100 577.800 563.800 561.500 553.800 558.700 546.900 520.200 490.100 457.400 423.000 386.100 350.700 318.300 289.400 275.300 256.000 231.600 205.300 179.300 160.700 146.700 135.200 126.900 118.600 117.200 117.200 117.200 117.200 117.200 117.200 118.400 133.100 150.100 161.000 168.400 175.900 199.300 221.500 242.000 259.200 272.500 288.300 307.900 323.600 335.600 355.500 384.100 408.700 436.500 460.300 469.800 476.800 481.000 481.800 482.900 482.800 482.600
509.800 515.700 527.100 532.800 536.600 540.500 544.100 548.100 553.900 558.400 562.900 568.900 579.000 587.500 595.600 602.900 612.900 620.500 626.300 637.800 648.400 641.500 605.000 572.400 556.800 538.000 529.200 511.900 497.500 478.100 456.400 441.400 429.300 419.200 409.100 398.300 382.800 367.400 352.900 338.100 319.200 300.500 280.800 267.200 257.400 245.700 235.900 227.900 226.000 231.000 239.300 246.500 250.100 260.800 268.300 283.800 299.900 329.700 361.900 387.200 406.000 418.700 422.800 443.400 474.200 494.400 507.500 520.900 531.300 557.800 583.800 608.000 632.800 643.400 656.600 650.300 642.400 633.300 622.900 604.100 582.900 551.300 535.100 519.100 503.800 487.700 470.400 460.800 454.700 441.000 456.800 467.300 483.900 499.600 518.500 536.800 554.800 575.200 594.600 606.300 613.100 613.100 617.000 619.900 627.100 638.000 642.800 647.100 651.400 655.500 661.400 681.600 689.500 695.900 700.600 695.000 687.900 676.800 665.300 659.000 656.600 654.900 653.100 651.700 647.400 657.400 661.800 657.500 647.800 632.900 619.700 604.300 612.900 629.500 633.900 636.100 632.000 620.100 625.000 616.200 599.400 587.400 576.100 565.600 561.300 561.300 568.300 566.300 551.700 511.700 473.700 432.500 397.600 363.700 327.100 298.000 272.700 251.800 232.300 209.100 189.900 175.900 162.500 152.500 142.900 131.700 120.100 117.200 117.200 117.200 117.200 117.200 117.200 117.200 133.500 150.500 161.400 168.700 177.100 199.000 220.400 241.000 257.100 270.800 285.800 302.700 318.700 331.600 354.700 381.100 405.300 431.600 450.300 463.300 471.100 475.300 476.100 478.500 478.300 475.800
501.300 508.800 517.800 525.500 533.800 537.000 539.100 543.600 549.600 555.900 561.100 568.300 575.900 585.700 590.700 599.300 609.200 616.300 620.700 632.200 639.700 635.300 602.100 583.600 558.200 544.600 533.900 515.700 501.500 483.400 466.600 450.100 436.000 425.400 415.000 401.600 386.800 374.000 360.500 343.800 326.500 304.200 284.900 272.900 258.300 244.500 236.500 229.000 225.200 230.500 244.100 244.700 249.800 258.300 269.800 281.600 305.600 332.200 367.900 383.800 394.500 409.300 417.800 442.900 471.700 488.500 500.900 508.800 520.600 541.200 568.900 592.400 614.400 631.800 648.100 645.000 637.700 630.000 616.600 599.100 575.600 554.500 531.700 513.200 494.300 478.100 464.400 454.900 448.800 438.800 448.200 461.100 475.400 493.400 510.800 529.200 547.500 568.200 587.400 596.100 600.900 599.200 600.000 603.800 619.800 629.500 637.700 643.900 651.100 655.100 667.300 680.400 686.300 695.000 702.300 701.600 696.600 686.900 677.100 665.100 655.800 651.300 650.600 648.500 643.300 653.900 649.800 643.400 636.700 627.400 614.600 585.500 596.800 607.800 607.200 621.800 618.100 609.000 603.400 601.900 597.900 579.700 574.800 563.600 562.500 567.900 571.700 557.300 532.800 496.100 459.000 421.100 380.800 348.100 318.700 289.800 264.800 240.300 221.800 202.800 184.900 173.700 163.700 157.600 148.700 136.600 122.100 117.200 117.200 117.200 117.200 117.200 117.200 117.200 134.300 150.800 160.900 168.300 176.600 197.700 218.600 238.400 254.400 268.900 282.200 297.400 312.400 328.000 349.000 377.700 403.300 429.500 447.700 458.500 464.300 468.600 471.500 476.500 478.200 475.900
494.100 500.600 508.700 515.100 526.800 531.400 534.300 537.600 543.700 552.800 558.400 565.600 572.900 580.800 587.600 594.700 602.500 609.600 614.900 619.800 630.300 625.900 612.000 592.400 567.600 557.400 539.500 524.900 509.800 488.100 468.000 458.000 443.700 432.200 419.700 409.600 394.400 380.600 368.200 351.200 331.900 311.600 293.000 276.500 261.200 245.400 234.200 228.000 224.500 230.000 236.200 241.500 246.600 259.000 269.300 290.500 308.500 328.100 355.300 379.400 391.600 404.700 418.300 437.500 460.600 477.300 495.500 506.900 514.400 529.800 556.200 576.600 600.500 619.700 642.000 639.900 632.000 625.200 612.700 593.100 569.400 545.700 523.600 505.600 490.200 472.100 455.200 447.100 440.200 426.700 441.000 455.300 469.600 485.800 501.600 522.400 540.100 557.000 576.200 584.000 587.400 583.900 584.100 592.300 608.700 620.300 630.000 638.300 644.900 659.700 664.800 677.700 686.100 698.500 704.000 705.100 705.700 695.200 679.400 669.000 666.300 664.100 662.600 650.900 640.600 643.100 643.300 641.000 633.200 617.900 599.700 578.500 590.000 595.900 595.400 606.100 612.900 601.400 596.600 598.900 590.500 583.500 574.700 569.800 570.800 574.500 563.700 546.700 514.500 483.600 448.500 419.600 384.000 350.500 321.200 292.300 268.800 249.000 228.000 205.300 184.800 171.700 165.500 161.100 152.500 140.300 123.000 117.200 117.200 117.200 117.200 117.200 117.200 117.200 135.900 151.300 160.300 166.100 175.200 194.300 213.800 232.700 249.400 263.400 280.500 297.600 313.600 329.400 349.400 377.100 403.300 428.400 447.600 452.300 459.400 465.200 473.400 478.500 480.200 477.100
477.600 487.400 495.400 504.100 516.000 523.000 527.700 531.200 537.700 547.400 555.000 561.800 570.400 578.400 585.300 591.300 598.500 604.800 608.800 615.600 625.500 623.000 617.900 600.900 596.500 574.700 549.200 534.600 513.300 494.500 474.800 463.300 450.800 439.800 427.800 417.000 403.100 386.600 374.500 358.700 337.000 318.500 295.800 275.600 261.300 243.800 233.900 226.900 224.200 226.700 234.200 239.400 245.300 255.600 277.000 290.400 302.200 322.500 354.600 372.700 389.700 403.400 419.100 435.400 450.300 465.700 485.800 502.700 512.700 522.300 540.600 562.700 583.700 606.000 632.000 634.000 625.900 622.500 611.900 589.400 561.100 539.800 518.500 502.700 485.200 466.900 449.000 439.600 435.200 420.200 435.200 446.800 463.200 478.300 494.100 513.400 531.300 546.300 565.200 573.200 572.600 570.200 571.800 580.400 596.100 609.500 620.100 626.200 646.200 660.900 667.100 670.400 684.100 698.600 703.100 705.400 705.300 701.500 685.900 667.600 667.300 671.300 668.400 653.000 637.400 640.600 641.100 641.700 628.000 615.200 592.500 564.600 576.300 580.300 574.900 585.100 583.200 580.000 586.600 592.500 589.100 587.400 582.300 574.100 574.600 574.500 561.500 539.200 516.300 486.900 456.800 425.300 389.000 355.100 324.100 302.600 281.600 259.000 234.800 209.700 185.600 169.700 165.900 162.000 153.400 141.000 124.800 117.200 117.200 117.200 117.200 117.200 117.200 117.600 135.900 150.500 159.700 164.800 175.000 194.700 215.800 236.700 250.000 263.900 280.200 297.800 313.300 325.700 348.100 374.700 400.100 421.600 435.700 454.500 464.500 469.000 475.800 481.100 480.900 477.700
459.200 469.000 477.800 490.200 502.900 512.500 517.500 524.400 531.900 540.600 550.500 560.000 567.300 574.500 580.400 588.100 593.400 599.500 604.000 610.300 621.700 620.900 617.300 605.700 607.700 596.900 566.900 541.300 522.400 503.600 485.300 469.000 458.500 450.100 435.900 422.900 410.600 394.700 381.100 366.300 342.500 321.500 301.000 279.400 259.400 243.000 232.000 227.400 223.000 225.200 232.700 238.200 244.000 261.900 278.300 286.100 298.600 320.200 347.600 366.000 384.900 402.300 421.700 436.600 450.600 465.800 482.600 496.000 510.200 521.900 535.200 557.400 571.800 591.100 614.700 627.600 620.300 619.200 611.800 587.200 559.700 537.000 513.400 500.900 481.000 462.300 444.500 432.800 427.600 412.500 428.200 437.200 453.900 469.300 486.300 505.700 522.600 534.800 550.400 559.500 556.700 554.800 553.000 560.100 576.300 596.700 609.400 630.500 647.500 660.800 670.200 670.200 680.500 696.200 701.600 706.600 707.700 699.000 688.300 669.600 665.000 664.100 655.500 646.700 636.900 640.100 641.100 632.200 621.100 606.700 585.100 561.800 567.800 570.600 567.900 570.700 572.400 574.200 579.000 587.200 589.700 598.900 591.700 584.000 583.600 576.800 567.000 546.100 522.000 487.200 466.200 428.300 391.300 363.200 336.800 312.900 289.900 265.200 239.700 211.600 184.400 171.100 163.900 160.400 152.900 139.700 124.600 117.200 117.200 117.200 117.200 117.200 117.200 117.200 133.600 147.600 155.400 163.100 176.100 196.400 219.700 233.800 246.600 262.300 278.600 294.100 309.600 323.100 343.600 368.500 393.700 420.100 441.200 456.100 469.600 473.900 477.500 483.100 484.800 482.500
437.700 447.700 457.800 471.100 486.000 495.600 505.600 514.400 524.600 534.500 545.900 555.400 563.600 570.700 575.700 582.000 586.800 592.800 597.300 605.300 613.300 617.700 618.400 612.700 616.600 605.200 581.700 556.600 535.400 511.300 492.700 475.900 467.400 456.400 443.100 429.800 417.600 404.500 387.200 372.200 349.900 326.900 305.400 280.100 259.400 241.600 232.400 226.200 221.400 222.900 228.200 234.100 241.300 268.600 273.500 283.500 290.500 323.200 347.200 360.100 379.000 398.300 421.100 439.100 454.000 469.400 484.500 498.400 507.400 524.500 538.800 553.400 564.100 579.600 602.400 619.400 617.800 615.800 609.200 587.400 560.200 536.300 509.900 493.600 479.300 459.000 442.000 427.800 415.000 408.600 421.800 429.400 444.500 462.100 476.300 495.300 511.600 524.500 535.500 541.500 543.400 531.400 535.300 561.600 579.300 596.000 613.500 630.800 646.300 661.200 669.400 674.000 683.600 692.700 701.200 709.000 711.800 708.200 698.200 680.100 659.200 650.800 639.700 633.500 632.800 637.400 637.400 631.700 617.600 600.200 581.200 561.800 558.900 562.600 563.200 562.600 566.500 568.000 571.700 586.000 596.900 605.000 600.800 591.900 589.800 582.400 570.200 550.000 528.200 495.700 463.500 429.000 396.300 367.500 341.100 317.200 292.600 268.700 242.100 213.100 184.500 169.000 159.900 158.200 150.600 137.200 121.100 117.200 117.200 117.200 117.200 117.200 117.200 121.900 130.300 142.200 152.400 163.400 175.800 193.600 215.500 235.300 244.800 259.500 273.900 288.000 302.100 318.200 340.300 367.400 395.600 420.300 441.200 460.800 475.000 480.700 487.600 491.500 490.900 489.400
412.600 423.400 437.500 450.100 465.000 476.700 488.600 498.600 514.200 525.600 537.700 546.300 556.100 563.900 570.800 576.200 580.900 583.900 590.900 598.100 604.300 608.600 609.900 619.600 623.700 616.400 591.400 563.700 545.600 526.000 499.400 489.300 475.900 460.900 450.500 436.800 422.800 410.900 392.800 376.300 358.600 332.000 306.500 279.900 261.800 249.800 236.700 226.200 220.400 220.400 224.100 231.200 247.800 264.500 274.300 279.900 286.300 315.000 338.200 349.100 374.200 392.600 413.600 436.900 456.800 471.700 486.700 499.700 504.300 526.000 543.100 558.600 561.400 572.900 594.500 615.200 618.000 611.500 604.400 585.400 558.700 536.200 512.700 492.400 475.100 455.400 437.300 423.300 412.900 395.400 414.100 423.100 436.200 453.100 464.600 484.900 499.800 509.100 519.800 526.000 516.800 522.200 541.000 561.100 578.600 596.500 613.100 629.100 644.700 659.000 669.500 675.400 682.200 696.800 698.600 705.400 711.300 707.700 692.600 680.100 662.000 653.000 642.900 634.800 631.100 632.700 634.300 629.300 614.400 604.400 585.600 567.600 553.100 549.300 551.900 552.200 564.500 568.100 569.800 583.000 602.500 607.400 604.900 598.300 591.900 592.000 577.900 554.300 533.400 494.600 460.300 426.600 395.300 364.900 336.200 317.300 293.900 268.300 241.100 211.900 185.200 170.400 156.300 153.400 146.500 133.000 117.200 117.200 117.200 117.200 117.200 117.200 117.200 117.400 126.300 136.100 148.800 162.700 173.400 191.500 209.600 224.300 242.300 256.500 274.500 292.000 308.700 323.400 346.200 373.300 399.000 422.300 444.700 469.700 485.200 493.200 497.100 500.100 497.500 493.800
386.500 401.900 412.200 424.300 440.300 454.600 467.000 485.800 500.800 511.100 523.700 534.000 544.100 554.200 563.200 569.300 574.000 576.700 583.200 592.100 597.900 601.500 604.000 618.200 625.400 619.000 593.400 568.600 558.100 543.000 517.700 500.300 483.500 467.800 455.800 441.700 427.600 412.800 395.200 374.500 357.400 334.600 307.700 280.900 263.500 249.800 235.700 226.100 220.500 218.300 219.700 225.600 236.000 260.500 276.300 279.200 283.800 310.500 330.600 339.900 364.000 386.000 405.600 430.100 454.300 473.800 487.800 500.800 512.600 524.500 548.400 557.400 561.900 573.700 597.700 615.600 616.100 607.600 599.800 580.100 555.200 530.600 504.900 487.100 469.900 452.200 434.700 417.100 408.000 391.700 405.300 415.600 426.500 442.700 456.400 472.100 485.600 497.300 507.100 500.200 506.600 527.600 544.300 562.800 582.100 596.000 611.400 624.300 643.000 656.300 666.100 674.300 683.200 695.200 701.100 704.900 710.600 709.300 700.800 688.800 676.700 661.400 648.000 636.100 631.100 627.700 623.900 618.500 605.800 595.700 584.500 565.900 547.400 539.800 546.100 547.800 562.500 570.600 569.800 575.500 596.200 603.600 609.500 602.500 591.300 589.400 573.600 548.100 520.300 484.800 452.100 418.100 386.500 362.300 337.100 314.200 289.700 263.100 235.800 209.000 186.200 172.100 154.600 148.500 141.000 126.500 117.200 117.200 117.200 117.200 117.200 117.200 117.200 117.200 125.800 134.000 146.100 161.000 172.800 191.100 211.700 231.200 242.500 258.700 276.800 296.400 312.300 323.900 346.600 375.100 401.800 425.600 447.200 475.900 489.600 503.400 507.000 508.900 502.500 502.600
364.100 374.800 382.200 396.700 407.500 426.800 443.100 466.900 481.400 491.600 503.600 518.700 529.800 541.000 551.600 559.500 565.500 567.900 573.500 582.100 592.800 593.400 595.000 610.100 617.200 611.600 590.700 578.800 567.000 549.800 532.100 511.900 495.500 476.300 459.400 445.900 429.300 411.900 390.700 374.300 360.600 337.000 308.200 284.700 265.200 251.300 235.300 224.600 220.200 216.400 218.500 222.800 230.200 248.400 270.600 279.300 284.900 309.200 317.900 330.600 357.500 379.500 400.300 422.100 449.500 469.400 482.600 497.700 516.500 530.600 550.900 558.200 564.800 588.100 606.600 616.300 615.100 604.200 596.900 580.200 556.900 529.600 502.100 487.000 466.900 448.900 428.600 412.500 403.600 386.000 400.100 409.600 417.800 434.300 448.800 463.000 477.900 488.200 483.400 483.400 510.200 525.700 545.900 562.100 581.200 594.100 608.700 626.500 640.000 651.500 662.800 670.600 684.800 693.700 705.200 710.500 713.600 712.300 710.400 704.400 690.100 671.000 651.600 640.700 635.400 624.200 616.100 613.300 604.500 600.800 586.700 566.900 552.000 536.500 540.100 544.000 555.000 563.600 572.800 570.800 584.800 597.800 599.000 597.000 587.800 577.600 563.500 539.200 508.100 473.800 442.100 410.700 381.500 355.400 330.400 306.200 279.600 250.800 228.100 204.100 188.300 174.300 156.900 144.500 135.200 122.700 117.200 117.200 117.200 117.200 117.200 117.200 117.200 117.200 123.700 131.800 145.600 157.900 176.500 194.700 213.300 231.600 243.500 259.400 280.100 299.200 313.900 324.700 347.000 372.600 401.500 427.500 450.800 478.600 497.800 513.300 519.300 518.900 512.100 507.300
341.700 347.500 355.300 367.800 381.900 396.200 418.400 437.500 455.100 468.100 478.500 497.200 512.300 525.200 536.000 547.200 553.800 556.900 560.800 568.900 579.700 584.600 584.500 595.800 604.800 591.400 585.200 580.000 569.400 552.800 542.600 525.600 506.900 489.900 468.400 452.400 435.900 414.100 395.100 375.700 362.700 340.400 308.000 287.900 267.600 251.000 236.600 224.600 218.600 215.500 215.800 219.900 225.700 241.000 263.300 275.800 290.300 308.600 316.300 327.100 346.700 373.200 395.700 415.300 440.400 464.600 481.300 499.600 520.500 535.400 553.600 563.800 572.500 598.100 612.200 617.800 612.900 602.000 592.100 576.700 555.400 525.200 499.100 483.300 466.600 445.100 424.900 410.400 397.900 381.500 395.400 403.400 411.700 426.200 439.600 454.400 468.000 460.700 468.200 490.600 511.100 525.200 543.200 561.100 579.400 593.300 605.600 623.800 638.300 649.800 657.200 670.000 685.700 696.100 702.800 708.100 714.000 711.600 714.300 706.500 688.300 666.600 652.000 637.300 634.500 630.700 621.100 614.300 599.100 583.200 564.700 555.100 548.600 536.200 535.400 541.200 544.000 549.900 558.700 565.200 573.000 582.400 586.300 587.000 583.400 574.300 559.000 529.000 496.300 462.500 429.600 396.800 367.100 340.100 314.700 291.300 268.000 240.900 224.000 204.700 190.300 173.900 161.000 143.100 133.200 122.400 117.200 117.200 117.200 117.200 117.200 117.200 117.200 117.200 118.900 124.900 142.900 159.500 178.100 194.400 215.500 232.500 243.100 259.600 281.100 301.300 315.000 324.900 347.800 374.400 402.800 427.300 450.200 472.100 492.200 503.700 512.500 516.800 516.000 511.700
319.700 325.200 333.400 339.800 357.900 366.500 387.700 406.100 427.600 443.400 453.500 471.600 491.300 505.400 517.500 528.900 536.700 542.100 547.600 557.400 567.400 573.300 574.400 576.100 581.700 576.300 580.700 580.900 577.200 559.300 559.700 541.200 519.900 499.700 480.500 463.400 442.100 426.700 402.200 378.400 357.500 335.100 308.300 288.500 273.500 253.700 238.200 225.600 218.500 215.000 214.000 216.400 222.900 237.600 252.600 265.200 286.600 309.200 318.700 330.800 346.500 371.800 395.500 418.300 437.300 449.800 472.500 493.200 520.100 541.900 561.400 569.900 586.000 605.800 617.100 619.300 610.300 597.700 584.900 570.200 548.200 523.500 502.200 486.600 462.700 441.100 424.300 406.700 393.400 379.300 392.000 398.900 406.900 418.300 431.000 442.000 448.600 448.800 473.800 495.400 509.900 524.300 539.800 559.100 576.100 591.000 603.200 616.800 631.900 646.000 655.700 668.400 680.600 693.800 700.100 703.100 703.200 703.200 703.300 702.300 687.300 656.900 652.100 643.800 640.100 634.700 629.800 611.100 584.300 564.200 557.200 550.300 549.700 526.900 523.300 523.800 530.600 535.300 546.200 552.700 563.200 564.400 574.000 579.200 583.900 576.300 554.300 525.800 491.000 450.900 419.200 383.800 347.600 319.800 294.800 275.900 257.800 239.400 224.100 204.800 193.700 180.800 165.600 150.500 133.800 119.400 117.200 117.200 117.200 117.200 117.200 117.200 117.200 117.200 117.200 122.800 138.600 157.700 176.300 193.000 214.500 230.800 243.200 259.500 281.900 302.000 314.800 322.500 350.000 376.800 402.100 423.400 443.000 459.200 472.300 486.500 498.300 508.100 515.600 517.000
299.200 302.300 311.800 321.600 331.900 343.900 361.000 376.600 389.600 402.800 418.900 440.900 461.000 478.700 493.900 504.700 514.100 521.300 530.700 542.100 552.500 557.700 558.500 558.700 559.500 562.400 571.400 576.300 574.300 565.400 561.100 539.800 521.500 509.300 488.200 471.000 445.400 428.500 408.900 385.100 357.100 339.200 309.900 290.400 273.500 257.300 240.600 223.700 217.200 215.200 213.700 214.700 220.800 231.500 245.500 260.100 272.800 289.500 306.100 321.000 338.100 356.900 383.600 416.600 436.500 448.300 469.800 495.300 519.000 542.800 566.000 584.900 596.700 611.800 621.100 618.500 608.400 594.000 578.300 562.100 547.200 531.900 509.600 486.900 456.100 437.000 418.200 403.500 389.200 374.300 388.700 395.800 401.500 413.500 424.100 427.800 430.400 456.700 480.900 496.000 510.400 521.200 536.700 554.300 569.100 581.800 597.200 611.100 628.200 639.600 651.000 665.100 674.600 687.300 695.100 699.400 699.400 703.400 700.700 695.800 682.600 665.500 651.600 646.400 645.200 635.500 617.200 595.900 569.700 551.300 541.900 535.500 529.800 521.400 514.700 503.400 516.200 524.000 529.400 539.900 550.500 557.900 566.000 579.800 580.400 577.800 564.500 530.100 493.300 458.800 431.500 381.300 342.300 309.700 286.700 269.100 253.500 238.400 224.600 207.500 195.500 184.400 170.600 154.100 135.400 118.300 117.200 117.200 117.200 117.200 117.200 117.200 117.200 117.200 117.200 122.800 136.900 156.900 173.700 189.500 210.100 228.100 242.300 258.700 283.100 302.400 314.500 321.900 350.100 376.000 398.300 417.800 434.000 448.700 467.200 482.000 494.500 515.200 522.500 522.300
280.000 284.200 295.000 300.100 305.200 318.400 333.100 347.300 357.500 367.800 382.300 408.500 427.400 445.000 463.200 478.900 486.600 493.000 508.200 524.100 532.300 538.200 536.100 539.500 537.900 540.000 547.900 557.900 564.600 562.500 551.800 537.700 528.100 511.200 495.700 474.800 448.200 431.600 411.400 393.000 364.300 341.000 310.900 289.500 271.900 257.800 242.500 226.600 216.600 215.500 212.600 212.800 217.900 229.400 244.200 254.900 268.200 281.200 296.000 311.900 331.300 349.500 374.800 398.500 421.700 444.400 469.000 493.100 516.900 543.300 567.300 589.300 605.700 619.500 624.700 618.100 605.400 590.900 574.400 557.700 542.100 526.500 496.600 466.900 447.400 430.500 411.400 399.000 386.800 371.200 383.300 389.600 396.800 407.600 407.800 417.700 435.500 459.700 476.700 491.300 506.500 517.200 528.600 549.100 565.200 579.900 594.100 609.200 623.800 634.700 646.900 658.600 669.900 675.600 684.200 691.900 693.600 693.100 698.300 695.100 685.500 682.400 659.000 642.800 639.400 625.200 597.700 576.700 559.800 539.600 523.500 516.900 509.700 501.400 496.000 498.300 492.900 499.700 510.300 528.800 538.600 547.000 559.500 568.300 577.300 577.900 569.900 532.400 492.900 455.900 413.300 371.400 336.000 307.700 278.300 259.900 247.800 237.800 225.400 211.600 199.800 187.500 173.800 157.400 139.200 122.400 117.200 117.200 117.200 117.200 117.200 117.200 117.200 117.200 117.200 123.700 139.900 156.700 172.800 190.200 207.100 224.500 241.400 260.800 283.600 301.600 314.600 322.400 348.200 371.100 390.900 408.600 423.300 438.100 461.800 485.500 504.300 518.600 532.000 529.800
264.100 268.700 277.400 278.000 283.600 297.600 308.500 320.100 328.000 335.800 353.100 372.500 394.100 412.300 426.800 444.100 458.000 459.000 479.300 499.300 511.200 508.700 509.000 514.300 507.700 515.100 520.300 528.500 544.300 547.600 540.900 533.000 533.500 512.900 493.800 477.100 453.800 431.900 408.000 387.100 362.300 338.700 313.000 291.300 281.900 266.900 244.300 229.400 218.200 214.600 212.500 209.800 216.100 226.700 241.200 254.900 266.000 281.800 296.000 310.600 328.500 345.300 370.000 394.300 419.300 445.100 468.900 491.700 515.800 543.600 572.800 593.800 612.100 622.500 625.100 616.500 602.800 587.500 570.400 551.500 530.100 512.000 484.700 462.500 442.000 423.600 406.900 394.300 383.100 369.300 378.500 386.600 392.300 396.500 407.400 420.400 434.000 455.100 471.200 486.000 498.400 512.000 525.500 543.900 558.000 573.300 588.400 603.100 613.900 627.000 641.400 648.600 659.700 671.900 672.400 680.700 684.000 686.400 692.500 688.800 673.100 661.000 656.800 633.000 616.400 595.900 571.800 554.100 536.200 520.600 506.700 493.800 488.900 482.700 476.400 484.000 482.400 478.200 490.900 506.400 525.700 541.700 550.300 555.900 564.500 570.400 568.000 528.500 484.100 443.100 401.600 364.600 334.300 305.800 280.500 258.700 242.100 233.500 225.100 214.900 204.100 190.200 175.200 158.400 140.700 117.200 117.200 117.200 117.200 117.200 117.200 117.200 117.200 117.200 119.600 126.700 141.500 155.800 171.000 189.000 208.700 223.900 239.800 259.700 282.000 299.600 313.300 322.700 343.000 363.200 380.700 397.800 417.100 441.500 465.100 487.000 513.600 525.300 534.100 537.600
250.500 252.200 264.800 265.400 263.400 276.200 283.800 295.800 303.900 311.300 328.900 342.500 359.500 373.700 389.300 402.900 417.400 425.900 447.000 472.600 477.400 476.700 477.400 483.700 478.700 485.700 488.800 494.600 510.300 533.200 537.500 525.000 527.400 515.500 492.300 473.800 457.200 435.100 409.500 385.300 362.400 337.900 313.200 294.200 281.400 264.900 247.900 232.200 218.700 213.200 211.100 208.900 214.600 225.800 240.600 253.700 265.800 280.800 297.200 311.100 326.000 342.100 365.700 390.700 416.700 445.300 469.100 490.900 515.800 542.800 576.600 600.200 616.900 623.300 621.700 611.600 598.100 584.200 565.300 546.000 521.300 504.400 486.300 455.700 432.800 416.600 402.300 389.100 378.600 364.500 373.200 382.400 385.800 396.700 410.400 418.700 430.100 448.900 467.700 480.600 493.000 507.000 520.400 535.900 551.300 562.800 577.100 592.500 605.400 617.300 626.800 636.200 649.600 659.400 669.500 670.500 679.500 681.200 684.000 680.100 665.600 640.500 630.400 618.200 590.200 563.800 544.400 527.300 511.900 496.600 485.500 475.600 463.300 464.300 457.000 461.400 469.400 469.400 481.300 491.500 503.000 520.100 535.400 543.400 554.000 558.900 558.700 517.900 475.400 438.000 402.000 371.000 342.200 316.300 288.500 259.800 243.900 233.500 224.600 217.500 208.000 197.000 182.800 164.600 140.800 117.200 117.200 117.200 117.200 117.200 117.200 117.200 117.200 117.200 120.800 127.800 144.100 155.400 170.100 187.600 204.700 221.500 240.200 259.700 279.500 296.100 308.800 319.800 336.800 351.200 376.700 398.500 417.400 443.400 469.400 499.200 521.700 534.700 548.200 550.500
230.100 233.300 247.200 244.300 246.800 252.900 260.400 269.900 279.100 290.900 305.300 314.200 327.700 338.500 350.700 363.900 379.800 390.000 424.900 446.500 451.500 448.300 445.000 447.400 450.800 455.500 459.700 468.800 487.000 513.100 523.500 525.000 514.800 509.600 493.000 476.000 454.000 436.600 412.500 388.700 362.000 335.200 310.700 293.200 278.800 263.800 250.900 234.500 225.700 213.400 209.200 207.300 213.800 225.600 239.600 255.800 266.300 278.600 296.200 309.700 327.600 342.300 360.800 386.600 414.600 445.900 467.000 490.000 515.500 543.600 579.900 605.900 618.900 621.600 611.400 602.400 588.700 576.800 558.100 538.700 511.800 489.000 470.100 444.500 429.300 413.900 395.200 382.500 374.900 363.600 366.300 373.000 381.500 396.200 407.300 416.700 427.000 444.100 461.400 475.500 489.200 501.000 515.800 531.300 546.200 554.500 566.700 577.000 590.600 602.100 614.300 627.200 637.200 648.200 659.800 661.900 669.600 674.200 678.400 678.400 661.100 627.700 600.100 580.700 555.600 532.300 517.200 498.200 484.700 472.000 463.300 455.900 444.500 446.800 441.600 446.800 455.500 464.700 469.600 478.200 489.800 505.400 521.800 528.100 539.600 542.200 542.100 515.700 477.700 444.500 412.500 380.000 352.700 325.400 298.100 270.300 248.000 231.900 224.500 220.400 215.200 205.600 190.000 168.500 142.200 117.200 117.200 117.200 117.200 117.200 117.200 117.200 117.200 117.200 117.200 132.200 151.000 164.500 178.300 191.300 204.100 219.900 239.500 258.900 278.300 292.600 306.200 318.700 336.500 357.300 379.600 399.000 419.300 442.900 469.600 498.900 523.900 538.500 547.100 556.500
216.900 215.800 227.400 223.200 231.000 231.300 238.400 249.700 261.400 271.000 281.400 292.300 297.500 310.800 322.000 334.200 343.800 366.300 398.400 421.300 412.200 413.300 412.200 414.000 422.600 427.400 434.600 444.200 466.400 488.800 503.000 514.800 511.800 502.000 486.700 473.300 449.700 432.600 414.700 390.200 362.800 330.500 308.900 293.200 276.900 267.800 254.200 237.300 226.200 215.300 208.700 206.100 211.800 224.500 238.900 255.400 264.900 278.700 294.400 308.900 323.300 340.600 358.800 383.000 410.100 440.700 464.100 487.800 514.200 543.500 584.500 607.200 616.700 619.400 602.300 590.300 579.100 561.800 548.200 530.800 506.100 479.600 455.500 435.800 422.400 405.000 388.200 378.700 370.100 354.500 363.000 369.900 383.200 392.300 402.900 410.900 425.800 442.200 457.500 469.300 481.400 497.100 510.900 525.400 537.600 549.000 561.500 572.200 585.700 592.400 602.700 613.600 624.400 638.000 648.700 654.400 659.600 665.900 673.300 673.300 654.300 612.400 574.400 547.400 525.500 512.400 496.500 482.100 469.900 461.300 452.200 438.900 429.000 428.000 432.100 440.300 444.900 449.600 462.500 474.900 484.000 495.000 508.100 524.400 519.700 533.400 533.500 516.400 483.800 453.100 422.300 389.800 359.400 335.000 307.100 280.500 257.000 233.300 226.600 225.300 219.900 208.400 191.200 167.700 140.800 117.200 117.200 117.200 117.200 117.200 117.200 117.200 117.200 117.200 121.300 139.000 156.500 168.500 179.900 195.300 206.800 223.600 242.400 262.600 280.700 296.100 309.300 321.200 337.700 357.100 378.200 398.700 412.900 439.000 465.600 491.500 509.000 526.600 539.700 552.700
